# .PCD v0.7 - Point Cloud Data file format
VERSION 0.7
FIELDS x y z
SIZE 4 4 4
TYPE F F F
COUNT 1 1 1
WIDTH 1016
HEIGHT 1
VIEWPOINT 0 0 0 1 0 0 0
POINTS 1016
DATA ascii
-0.23284748 -0.019138727 0.94599998
-0.23102123 -0.019138727 0.94599998
-0.23649999 -0.017315991 0.94599998
-0.23467374 -0.017315991 0.94599998
-0.23284748 -0.017315991 0.94599998
-0.23102123 -0.017315991 0.94599998
-0.24015251 -0.015493256 0.94599998
-0.23832625 -0.015493256 0.94599998
-0.23649999 -0.015493256 0.94599998
-0.23467374 -0.015493256 0.94599998
-0.23284748 -0.015493256 0.94599998
-0.23102123 -0.015493256 0.94599998
-0.24536487 -0.013554914 0.93800002
-0.24355406 -0.013554914 0.93800002
-0.24225868 -0.013583815 0.94
-0.2412114 -0.013627168 0.94300002
-0.24015251 -0.01367052 0.94599998
-0.23832625 -0.01367052 0.94599998
-0.23649999 -0.01367052 0.94599998
-0.23467374 -0.01367052 0.94599998
-0.24717568 -0.011747592 0.93800002
-0.24536487 -0.011747592 0.93800002
-0.24355406 -0.011747592 0.93800002
-0.24225868 -0.01177264 0.94
-0.2412114 -0.011810212 0.94300002
-0.24015251 -0.011847784 0.94599998
-0.23832625 -0.011847784 0.94599998
-0.237 -0.011872833 0.94800001
-0.23516989 -0.011872833 0.94800001
-0.23407818 -0.011910404 0.95099998
-0.25260812 -0.0099402703 0.93800002
-0.2507973 -0.0099402703 0.93800002
-0.2489865 -0.0099402703 0.93800002
-0.24717568 -0.0099402703 0.93800002
-0.24588802 -0.0099614644 0.94
-0.24407336 -0.0099614644 0.94
-0.24225868 -0.0099614644 0.94
-0.2412114 -0.0099932561 0.94300002
-0.24015251 -0.010025048 0.94599998
-0.23832625 -0.010025048 0.94599998
-0.237 -0.010046243 0.94800001
-0.23591408 -0.010078034 0.95099998
-0.23407818 -0.010078034 0.95099998
-0.25314671 -0.0081502888 0.94
-0.2507973 -0.0081329485 0.93800002
-0.2489865 -0.0081329485 0.93800002
-0.2477027 -0.0081502888 0.94
-0.24588802 -0.0081502888 0.94
-0.24407336 -0.0081502888 0.94
-0.24303186 -0.0081763007 0.94300002
-0.24197876 -0.0082023116 0.94599998
-0.24015251 -0.0082023116 0.94599998
-0.23883012 -0.0082196537 0.94800001
-0.237 -0.0082196537 0.94800001
-0.23591408 -0.0082456646 0.95099998
-0.23407818 -0.0082456646 0.95099998
-0.25314671 -0.0063391137 0.94
-0.2507973 -0.0063256263 0.93800002
-0.2489865 -0.0063256263 0.93800002
-0.2477027 -0.0063391137 0.94
-0.24588802 -0.0063391137 0.94
-0.24485232 -0.0063593448 0.94300002
-0.24303186 -0.0063593448 0.94300002
-0.24197876 -0.0063795759 0.94599998
-0.24066024 -0.0063930638 0.94800001
-0.23883012 -0.0063930638 0.94800001
-0.237 -0.0063930638 0.94800001
-0.23591408 -0.0064132945 0.95099998
-0.2348166 -0.0064335261 0.954
-0.2329749 -0.0064335261 0.954
-0.23161775 -0.0064470135 0.95599997
-0.25314671 -0.0045279386 0.94
-0.2507973 -0.0045183045 0.93800002
-0.2489865 -0.0045183045 0.93800002
-0.2477027 -0.0045279386 0.94
-0.24588802 -0.0045279386 0.94
-0.24485232 -0.0045423894 0.94300002
-0.24380502 -0.0045568398 0.94599998
-0.24249035 -0.0045664739 0.94800001
-0.24066024 -0.0045664739 0.94800001
-0.23958591 -0.0045809248 0.95099998
-0.23774999 -0.0045809248 0.95099998
-0.2366583 -0.0045953756 0.954
-0.2348166 -0.0045953756 0.954
-0.23346332 -0.0046050097 0.95599997
-0.23161775 -0.0046050097 0.95599997
-0.24999517 -0.0027023121 0.935
-0.24819015 -0.0027023121 0.935
-0.2477027 -0.0027167629 0.94
-0.24667278 -0.0027254336 0.94300002
-0.24485232 -0.0027254336 0.94300002
-0.24380502 -0.0027341039 0.94599998
-0.24249035 -0.0027398844 0.94800001
-0.24066024 -0.0027398844 0.94800001
-0.23958591 -0.0027485548 0.95099998
-0.23774999 -0.0027485548 0.95099998
-0.2366583 -0.0027572254 0.954
-0.2348166 -0.0027572254 0.954
-0.23346332 -0.0027630057 0.95599997
-0.23161775 -0.0027630057 0.95599997
-0.24999517 -0.00090077071 0.935
-0.24819015 -0.00090077071 0.935
-0.24849325 -0.00090847787 0.94300002
-0.24667278 -0.00090847787 0.94300002
-0.24485232 -0.00090847787 0.94300002
-0.24432047 -0.00091329479 0.94800001
-0.24249035 -0.00091329479 0.94800001
-0.2414218 -0.00091618497 0.95099998
-0.23958591 -0.00091618497 0.95099998
-0.2385 -0.00091907516 0.954
-0.2366583 -0.00091907516 0.954
-0.2348166 -0.00091907516 0.954
-0.23346332 -0.00092100189 0.95599997
-0.2323446 -0.00092389208 0.95899999
-0.25133204 0.00090558769 0.94
-0.24951738 0.00090558769 0.94
-0.24849325 0.00090847787 0.94300002
-0.24667278 0.00090847787 0.94300002
-0.24563126 0.000911368 0.94599998
-0.24432047 0.00091329479 0.94800001
-0.24249035 0.00091329479 0.94800001
-0.2414218 0.00091618497 0.95099998
-0.24034169 0.00091907516 0.954
-0.2385 0.00091907516 0.954
-0.2366583 0.00091907516 0.954
-0.23530887 0.00092100189 0.95599997
-0.23346332 0.00092100189 0.95599997
-0.2323446 0.00092389208 0.95899999
-0.25133204 0.0027167629 0.94
-0.24951738 0.0027167629 0.94
-0.24849325 0.0027254336 0.94300002
-0.24745752 0.0027341039 0.94599998
-0.24615058 0.0027398844 0.94800001
-0.24432047 0.0027398844 0.94800001
-0.24325772 0.0027485548 0.95099998
-0.2421834 0.0027572254 0.954
-0.24034169 0.0027572254 0.954
-0.2385 0.0027572254 0.954
-0.2366583 0.0027572254 0.954
-0.23530887 0.0027630057 0.95599997
-0.23419595 0.0027716763 0.95899999
-0.2323446 0.0027716763 0.95899999
-0.25213417 0.0045423894 0.94300002
-0.2503137 0.0045423894 0.94300002
-0.24928378 0.0045568398 0.94599998
-0.24745752 0.0045568398 0.94599998
-0.24615058 0.0045664739 0.94800001
-0.24432047 0.0045664739 0.94800001
-0.24325772 0.0045809248 0.95099998
-0.2421834 0.0045953756 0.954
-0.24034169 0.0045953756 0.954
-0.2385 0.0045953756 0.954
-0.23715444 0.0046050097 0.95599997
-0.23530887 0.0046050097 0.95599997
-0.23419595 0.0046194606 0.95899999
-0.2323446 0.0046194606 0.95899999
-0.2503137 0.0063593448 0.94300002
-0.24928378 0.0063795759 0.94599998
-0.2479807 0.0063930638 0.94800001
-0.24615058 0.0063930638 0.94800001
-0.24509363 0.0064132945 0.95099998
-0.2440251 0.0064335261 0.954
-0.2421834 0.0064335261 0.954
-0.24034169 0.0064335261 0.954
-0.23899999 0.0064470135 0.95599997
-0.23715444 0.0064470135 0.95599997
-0.23530887 0.0064470135 0.95599997
-0.24981081 0.0082196537 0.94800001
-0.2479807 0.0082196537 0.94800001
-0.24615058 0.0082196537 0.94800001
-0.24509363 0.0082456646 0.95099998
-0.2440251 0.0082716765 0.954
-0.2421834 0.0082716765 0.954
-0.24084555 0.0082890168 0.95599997
-0.23899999 0.0082890168 0.95599997
-0.23715444 0.0082890168 0.95599997
-0.2360473 0.0083150286 0.95899999
-0.23419595 0.0083150286 0.95899999
-0.25060135 0.010078034 0.95099998
-0.24876544 0.010078034 0.95099998
-0.24692953 0.010078034 0.95099998
-0.24586679 0.010109827 0.954
-0.2440251 0.010109827 0.954
-0.24269111 0.010131021 0.95599997
-0.24084555 0.010131021 0.95599997
-0.23899999 0.010131021 0.95599997
-0.23715444 0.010131021 0.95599997
-0.2360473 0.010162813 0.95899999
-0.23419595 0.010162813 0.95899999
-0.25060135 0.011910404 0.95099998
-0.24876544 0.011910404 0.95099998
-0.2477085 0.011947976 0.954
-0.24586679 0.011947976 0.954
-0.24453667 0.011973024 0.95599997
-0.24269111 0.011973024 0.95599997
-0.24084555 0.011973024 0.95599997
-0.23975 0.012010598 0.95899999
-0.23789865 0.012010598 0.95899999
-0.23678572 0.01204817 0.96200001
-0.23492858 0.01204817 0.96200001
-0.25139189 0.013786127 0.954
-0.24955019 0.013786127 0.954
-0.2477085 0.013786127 0.954
-0.24586679 0.013786127 0.954
-0.24453667 0.013815029 0.95599997
-0.24269111 0.013815029 0.95599997
-0.24160135 0.013858382 0.95899999
-0.23975 0.013858382 0.95899999
-0.23789865 0.013858382 0.95899999
-0.23678572 0.013901735 0.96200001
-0.23492858 0.013901735 0.96200001
-0.25376448 0.015657032 0.95599997
-0.25139189 0.015624277 0.954
-0.24955019 0.015624277 0.954
-0.2477085 0.015624277 0.954
-0.24638224 0.015657032 0.95599997
-0.24453667 0.015657032 0.95599997
-0.24269111 0.015657032 0.95599997
-0.24160135 0.015706165 0.95899999
-0.23975 0.015706165 0.95899999
-0.23789865 0.015706165 0.95899999
-0.23678572 0.015755299 0.96200001
-0.23492858 0.015755299 0.96200001
-0.25376448 0.017499035 0.95599997
-0.25191891 0.017499035 0.95599997
-0.25007334 0.017499035 0.95599997
-0.24822779 0.017499035 0.95599997
-0.24638224 0.017499035 0.95599997
-0.24453667 0.017499035 0.95599997
-0.2434527 0.01755395 0.95899999
-0.24160135 0.01755395 0.95899999
-0.23975 0.01755395 0.95899999
-0.23864286 0.017608864 0.96200001
-0.23678572 0.017608864 0.96200001
-0.23541698 0.017645473 0.96399999
-0.25376448 0.01934104 0.95599997
-0.25191891 0.01934104 0.95599997
-0.25007334 0.01934104 0.95599997
-0.24822779 0.01934104 0.95599997
-0.24638224 0.01934104 0.95599997
-0.24530405 0.019401735 0.95899999
-0.24421428 0.019462427 0.96200001
-0.24235715 0.019462427 0.96200001
-0.2405 0.019462427 0.96200001
-0.23864286 0.019462427 0.96200001
-0.23727798 0.019502889 0.96399999
-0.23541698 0.019502889 0.96399999
-0.23355599 0.019502889 0.96399999
-0.2545608 0.021249518 0.95899999
-0.25191891 0.021183044 0.95599997
-0.25007334 0.021183044 0.95599997
-0.24822779 0.021183044 0.95599997
-0.24638224 0.021183044 0.95599997
-0.24530405 0.021249518 0.95899999
-0.24421428 0.021315992 0.96200001
-0.24235715 0.021315992 0.96200001
-0.2405 0.021315992 0.96200001
-0.23913899 0.021360308 0.96399999
-0.23727798 0.021360308 0.96399999
-0.23541698 0.021360308 0.96399999
-0.23355599 0.021360308 0.96399999
-0.2545608 0.023097303 0.95899999
-0.25191891 0.023025047 0.95599997
-0.25007334 0.023025047 0.95599997
-0.24822779 0.023025047 0.95599997
-0.24638224 0.023025047 0.95599997
-0.24530405 0.023097303 0.95899999
-0.24421428 0.023169557 0.96200001
-0.24235715 0.023169557 0.96200001
-0.2405 0.023169557 0.96200001
-0.23913899 0.023217726 0.96399999
-0.23727798 0.023217726 0.96399999
-0.23541698 0.023217726 0.96399999
-0.2545608 0.024945086 0.95899999
-0.25191891 0.02486705 0.95599997
-0.25007334 0.02486705 0.95599997
-0.24900675 0.024945086 0.95899999
-0.2471554 0.024945086 0.95899999
-0.24607143 0.025023121 0.96200001
-0.24421428 0.025023121 0.96200001
-0.242861 0.025075145 0.96399999
-0.241 0.025075145 0.96399999
-0.23913899 0.025075145 0.96399999
-0.23727798 0.025075145 0.96399999
-0.23614961 0.025153179 0.96700001
-0.23428282 0.025153179 0.96700001
-0.25535715 0.026876686 0.96200001
-0.25270945 0.026792871 0.95899999
-0.2508581 0.026792871 0.95899999
-0.24900675 0.026792871 0.95899999
-0.2471554 0.026792871 0.95899999
-0.24607143 0.026876686 0.96200001
-0.24421428 0.026876686 0.96200001
-0.242861 0.026932562 0.96399999
-0.241 0.026932562 0.96399999
-0.23913899 0.026932562 0.96399999
-0.23801641 0.027016377 0.96700001
-0.23614961 0.027016377 0.96700001
-0.23428282 0.027016377 0.96700001
-0.25350001 0.028730251 0.96200001
-0.25164285 0.028730251 0.96200001
-0.24978572 0.028730251 0.96200001
-0.24792857 0.028730251 0.96200001
-0.24658301 0.02878998 0.96399999
-0.24472201 0.02878998 0.96399999
-0.242861 0.02878998 0.96399999
-0.241 0.02878998 0.96399999
-0.2398832 0.028879575 0.96700001
-0.23801641 0.028879575 0.96700001
-0.23614961 0.028879575 0.96700001
-0.23500966 0.028969172 0.97000003
-0.25402701 0.030647399 0.96399999
-0.25216603 0.030647399 0.96399999
-0.25030503 0.030647399 0.96399999
-0.24844401 0.030647399 0.96399999
-0.24658301 0.030647399 0.96399999
-0.24472201 0.030647399 0.96399999
-0.2436168 0.030742776 0.96700001
-0.24175 0.030742776 0.96700001
-0.24062742 0.030838151 0.97000003
-0.23875484 0.030838151 0.97000003
-0.23688224 0.030838151 0.97000003
-0.23500966 0.030838151 0.97000003
-0.25350001 0.03243738 0.96200001
-0.25164285 0.03243738 0.96200001
-0.25030503 0.032504816 0.96399999
-0.24844401 0.032504816 0.96399999
-0.24658301 0.032504816 0.96399999
-0.24472201 0.032504816 0.96399999
-0.2436168 0.032605972 0.96700001
-0.24250001 0.032707129 0.97000003
-0.24062742 0.032707129 0.97000003
-0.23949324 0.032808285 0.97299999
-0.23761486 0.032808285 0.97299999
-0.23573649 0.032808285 0.97299999
-0.25350001 0.034290943 0.96200001
-0.25164285 0.034290943 0.96200001
-0.25030503 0.034362234 0.96399999
-0.24844401 0.034362234 0.96399999
-0.24658301 0.034362234 0.96399999
-0.24548359 0.034469172 0.96700001
-0.2436168 0.034469172 0.96700001
-0.24250001 0.034576111 0.97000003
-0.24137162 0.034683045 0.97299999
-0.23949324 0.034683045 0.97299999
-0.23761486 0.034683045 0.97299999
-0.25402701 0.036219653 0.96399999
-0.25216603 0.036219653 0.96399999
-0.25030503 0.036219653 0.96399999
-0.24844401 0.036219653 0.96399999
-0.24658301 0.036219653 0.96399999
-0.24548359 0.036332369 0.96700001
-0.2436168 0.036332369 0.96700001
-0.24250001 0.036445089 0.97000003
-0.24137162 0.036557805 0.97299999
-0.25402701 0.038077071 0.96399999
-0.25216603 0.038077071 0.96399999
-0.25030503 0.038077071 0.96399999
-0.24921718 0.038195569 0.96700001
-0.24735039 0.038195569 0.96700001
-0.24548359 0.038195569 0.96700001
-0.24437259 0.038314067 0.97000003
-0.24325 0.038432561 0.97299999
-0.25481758 0.040058766 0.96700001
-0.25216603 0.03993449 0.96399999
-0.25030503 0.03993449 0.96399999
-0.24921718 0.040058766 0.96700001
-0.24735039 0.040058766 0.96700001
-0.24548359 0.040058766 0.96700001
-0.24437259 0.040183045 0.97000003
-0.25481758 0.041921966 0.96700001
-0.25295079 0.041921966 0.96700001
-0.25108397 0.041921966 0.96700001
-0.24921718 0.041921966 0.96700001
-0.24811777 0.042052023 0.97000003
-0.24624518 0.042052023 0.97000003
-0.24437259 0.042052023 0.97000003
-0.25481758 0.043785162 0.96700001
-0.25295079 0.043785162 0.96700001
-0.25108397 0.043785162 0.96700001
-0.24999036 0.043921005 0.97000003
-0.24811777 0.043921005 0.97000003
-0.24700676 0.04405684 0.97299999
-0.24512838 0.04405684 0.97299999
-0.24325 0.04405684 0.97299999
-0.25295079 0.045648362 0.96700001
-0.25108397 0.045648362 0.96700001
-0.24999036 0.045789983 0.97000003
-0.24811777 0.045789983 0.97000003
-0.24700676 0.0459316 0.97299999
-0.24512838 0.0459316 0.97299999
-0.24375001 0.046026014 0.97500002
-0.25452027 0.047806356 0.97299999
-0.25264189 0.047806356 0.97299999
-0.25127897 0.047904626 0.97500002
-0.24888514 0.047806356 0.97299999
-0.24700676 0.047806356 0.97299999
-0.24512838 0.047806356 0.97299999
-0.24375001 0.047904626 0.97500002
-0.25316119 0.049783237 0.97500002
-0.25127897 0.049783237 0.97500002
-0.24939673 0.049783237 0.97500002
-0.24751449 0.049783237 0.97500002
-0.24563225 0.049783237 0.97500002
-0.24375001 0.049783237 0.97500002
-0.25504345 0.051661853 0.97500002
-0.25316119 0.051661853 0.97500002
-0.25127897 0.051661853 0.97500002
-0.24939673 0.051661853 0.97500002
-0.24751449 0.051661853 0.97500002
-0.24563225 0.051661853 0.97500002
-0.25504345 0.053540464 0.97500002
-0.25316119 0.053540464 0.97500002
-0.25127897 0.053540464 0.97500002
-0.24939673 0.053540464 0.97500002
-0.25504345 0.055419076 0.97500002
-0.25316119 0.055419076 0.97500002
-0.25127897 0.055419076 0.97500002
-0.25504345 0.057297688 0.97500002
-0.25316119 0.057297688 0.97500002
-0.2479807 -0.031965319 0.94800001
-0.2479807 -0.031965319 0.94800001
-0.24615058 -0.031965319 0.94800001
-0.24615058 -0.031965319 0.94800001
-0.25347105 -0.030138729 0.94800001
-0.25347105 -0.030138729 0.94800001
-0.25164092 -0.030138729 0.94800001
-0.25164092 -0.030138729 0.94800001
-0.24981081 -0.030138729 0.94800001
-0.24981081 -0.030138729 0.94800001
-0.2479807 -0.030138729 0.94800001
-0.2479807 -0.030138729 0.94800001
-0.25395465 -0.028162813 0.94300002
-0.25395465 -0.028162813 0.94300002
-0.25213417 -0.028162813 0.94300002
-0.25213417 -0.028162813 0.94300002
-0.24186777 0.046026014 0.97500002
-0.24186777 0.046026014 0.97500002
-0.24186777 0.047904626 0.97500002
-0.24186777 0.047904626 0.97500002
-0.24186777 0.049783237 0.97500002
-0.24186777 0.049783237 0.97500002
-0.23998553 0.049783237 0.97500002
-0.23998553 0.049783237 0.97500002
-0.23810329 0.046026014 0.97500002
-0.23810329 0.046026014 0.97500002
-0.23810329 0.047904626 0.97500002
-0.23810329 0.047904626 0.97500002
-0.23622105 0.047904626 0.97500002
-0.23622105 0.047904626 0.97500002
-0.23810329 0.049783237 0.97500002
-0.23810329 0.049783237 0.97500002
-0.23622105 0.049783237 0.97500002
-0.23622105 0.049783237 0.97500002
-0.23949324 0.038432561 0.97299999
-0.23949324 0.038432561 0.97299999
-0.23810329 0.038511563 0.97500002
-0.23810329 0.038511563 0.97500002
-0.24137162 0.040307321 0.97299999
-0.24137162 0.040307321 0.97299999
-0.23949324 0.040307321 0.97299999
-0.23949324 0.040307321 0.97299999
-0.24137162 0.04218208 0.97299999
-0.24137162 0.04218208 0.97299999
-0.24536487 -0.015362236 0.93800002
-0.24536487 -0.015362236 0.93800002
-0.24355406 -0.015362236 0.93800002
-0.24355406 -0.015362236 0.93800002
-0.24174325 -0.015362236 0.93800002
-0.24174325 -0.015362236 0.93800002
-0.24044402 -0.01539499 0.94
-0.24044402 -0.01539499 0.94
-0.24432047 -0.031965319 0.94800001
-0.24432047 -0.031965319 0.94800001
-0.24563126 -0.030075144 0.94599998
-0.24563126 -0.030075144 0.94599998
-0.2503137 -0.028162813 0.94300002
-0.2503137 -0.028162813 0.94300002
-0.24745752 -0.028252408 0.94599998
-0.24745752 -0.028252408 0.94599998
-0.23949324 0.036557805 0.97299999
-0.23949324 0.036557805 0.97299999
-0.24137162 0.038432561 0.97299999
-0.24137162 0.038432561 0.97299999
-0.24325 0.040307321 0.97299999
-0.24325 0.040307321 0.97299999
-0.24999517 -0.011710019 0.935
-0.24999517 -0.011710019 0.935
-0.24819015 -0.011710019 0.935
-0.24819015 -0.011710019 0.935
-0.25180018 -0.011710019 0.935
-0.25180018 -0.011710019 0.935
-0.23998553 0.046026014 0.97500002
-0.23998553 0.046026014 0.97500002
-0.23998553 0.047904626 0.97500002
-0.23998553 0.047904626 0.97500002
-0.24137162 0.04405684 0.97299999
-0.24137162 0.04405684 0.97299999
-0.23622105 0.038511563 0.97500002
-0.23622105 0.038511563 0.97500002
-0.23433881 0.038511563 0.97500002
-0.23433881 0.038511563 0.97500002
-0.23810329 0.040390175 0.97500002
-0.23810329 0.040390175 0.97500002
-0.23622105 0.040390175 0.97500002
-0.23622105 0.040390175 0.97500002
-0.23433881 0.040390175 0.97500002
-0.23433881 0.040390175 0.97500002
-0.23245656 0.040390175 0.97500002
-0.23245656 0.040390175 0.97500002
-0.23998553 0.042268787 0.97500002
-0.23998553 0.042268787 0.97500002
-0.23810329 0.042268787 0.97500002
-0.23810329 0.042268787 0.97500002
-0.23622105 0.042268787 0.97500002
-0.23622105 0.042268787 0.97500002
-0.23433881 0.042268787 0.97500002
-0.23433881 0.042268787 0.97500002
-0.23245656 0.042268787 0.97500002
-0.23245656 0.042268787 0.97500002
-0.23057432 0.042268787 0.97500002
-0.23057432 0.042268787 0.97500002
-0.23998553 0.044147398 0.97500002
-0.23998553 0.044147398 0.97500002
-0.23810329 0.044147398 0.97500002
-0.23810329 0.044147398 0.97500002
-0.23622105 0.044147398 0.97500002
-0.23622105 0.044147398 0.97500002
-0.23433881 0.044147398 0.97500002
-0.23433881 0.044147398 0.97500002
-0.23245656 0.044147398 0.97500002
-0.23245656 0.044147398 0.97500002
-0.22869208 0.044147398 0.97500002
-0.22869208 0.044147398 0.97500002
-0.23694788 0.046167631 0.97799999
-0.23694788 0.046167631 0.97799999
-0.23433881 0.046026014 0.97500002
-0.23433881 0.046026014 0.97500002
-0.23245656 0.046026014 0.97500002
-0.23245656 0.046026014 0.97500002
-0.23057432 0.046026014 0.97500002
-0.23057432 0.046026014 0.97500002
-0.23505984 0.048052024 0.97799999
-0.23505984 0.048052024 0.97799999
-0.23224227 -0.013742774 0.95099998
-0.23224227 -0.013742774 0.95099998
-0.23113321 -0.013786127 0.954
-0.23113321 -0.013786127 0.954
-0.23113321 -0.011947976 0.954
-0.23113321 -0.011947976 0.954
-0.2329749 -0.0082716765 0.954
-0.2329749 -0.0082716765 0.954
-0.23355599 0.017645473 0.96399999
-0.23355599 0.017645473 0.96399999
-0.24325 0.04218208 0.97299999
-0.24325 0.04218208 0.97299999
-0.24174325 -0.017169558 0.93800002
-0.24174325 -0.017169558 0.93800002
-0.24044402 -0.017206166 0.94
-0.24044402 -0.017206166 0.94
-0.24638514 -0.017114643 0.935
-0.24638514 -0.017114643 0.935
-0.24458012 -0.017114643 0.935
-0.24458012 -0.017114643 0.935
-0.2427751 -0.017114643 0.935
-0.2427751 -0.017114643 0.935
-0.24638514 -0.013511561 0.935
-0.24638514 -0.013511561 0.935
-0.25180018 -0.015313102 0.935
-0.25180018 -0.015313102 0.935
-0.24999517 -0.015313102 0.935
-0.24999517 -0.015313102 0.935
-0.24819015 -0.015313102 0.935
-0.24819015 -0.015313102 0.935
-0.25180018 -0.013511561 0.935
-0.25180018 -0.013511561 0.935
-0.24999517 -0.013511561 0.935
-0.24999517 -0.013511561 0.935
-0.24819015 -0.013511561 0.935
-0.24819015 -0.013511561 0.935
-0.23428282 0.02328998 0.96700001
-0.23428282 0.02328998 0.96700001
-0.23241602 0.025153179 0.96700001
-0.23241602 0.025153179 0.96700001
-0.23492858 0.0064874762 0.96200001
-0.23492858 0.0064874762 0.96200001
-0.23355599 0.0065009631 0.96399999
-0.23355599 0.0065009631 0.96399999
-0.23355599 0.0083583817 0.96399999
-0.23355599 0.0083583817 0.96399999
-0.23169498 0.0083583817 0.96399999
-0.23169498 0.0083583817 0.96399999
-0.23355599 0.010215799 0.96399999
-0.23355599 0.010215799 0.96399999
-0.23355599 0.012073218 0.96399999
-0.23355599 0.012073218 0.96399999
-0.23241602 0.01211079 0.96700001
-0.23241602 0.01211079 0.96700001
-0.23355599 0.013930636 0.96399999
-0.23355599 0.013930636 0.96399999
-0.23241602 0.013973989 0.96700001
-0.23241602 0.013973989 0.96700001
-0.23245656 0.014089596 0.97500002
-0.23245656 0.014089596 0.97500002
-0.23128378 0.014132948 0.97799999
-0.23128378 0.014132948 0.97799999
-0.23241602 0.015837187 0.96700001
-0.23241602 0.015837187 0.96700001
-0.23245656 0.015968209 0.97500002
-0.23245656 0.015968209 0.97500002
-0.23128378 0.01601734 0.97799999
-0.23128378 0.01601734 0.97799999
-0.23241602 0.017700385 0.96700001
-0.23241602 0.017700385 0.96700001
-0.23317181 0.017901734 0.97799999
-0.23317181 0.017901734 0.97799999
-0.23241602 0.019563584 0.96700001
-0.23241602 0.019563584 0.96700001
-0.23197973 0.01968497 0.97299999
-0.23197973 0.01968497 0.97299999
-0.23199324 0.019846821 0.98100001
-0.23199324 0.019846821 0.98100001
-0.23197973 0.02155973 0.97299999
-0.23197973 0.02155973 0.97299999
-0.23245656 0.02348266 0.97500002
-0.23245656 0.02348266 0.97500002
-0.23197973 0.025309248 0.97299999
-0.23197973 0.025309248 0.97299999
-0.23197973 0.027184008 0.97299999
-0.23197973 0.027184008 0.97299999
-0.24638514 -0.015313102 0.935
-0.24638514 -0.015313102 0.935
-0.23355599 0.015788054 0.96399999
-0.23355599 0.015788054 0.96399999
-0.22919497 -0.019138727 0.94599998
-0.22919497 -0.019138727 0.94599998
-0.22919497 -0.017315991 0.94599998
-0.22919497 -0.017315991 0.94599998
-0.22967954 -0.015526012 0.94800001
-0.22967954 -0.015526012 0.94800001
-0.23241602 0.02328998 0.96700001
-0.23241602 0.02328998 0.96700001
-0.23313707 0.027100194 0.97000003
-0.23313707 0.027100194 0.97000003
-0.24355406 -0.020784201 0.93800002
-0.24355406 -0.020784201 0.93800002
-0.24174325 -0.020784201 0.93800002
-0.24174325 -0.020784201 0.93800002
-0.24044402 -0.020828517 0.94
-0.24044402 -0.020828517 0.94
-0.24638514 -0.018916186 0.935
-0.24638514 -0.018916186 0.935
-0.24458012 -0.018916186 0.935
-0.24458012 -0.018916186 0.935
-0.2427751 -0.018916186 0.935
-0.2427751 -0.018916186 0.935
-0.24174325 -0.018976878 0.93800002
-0.24174325 -0.018976878 0.93800002
-0.24044402 -0.019017341 0.94
-0.24044402 -0.019017341 0.94
-0.23810329 0.036632948 0.97500002
-0.23810329 0.036632948 0.97500002
-0.24946043 -0.017078035 0.93300003
-0.24946043 -0.017078035 0.93300003
-0.24765928 -0.017078035 0.93300003
-0.24765928 -0.017078035 0.93300003
-0.23313707 0.028969172 0.97000003
-0.23313707 0.028969172 0.97000003
-0.2329749 -0.011947976 0.954
-0.2329749 -0.011947976 0.954
-0.2329749 -0.010109827 0.954
-0.2329749 -0.010109827 0.954
-0.23161775 -0.010131021 0.95599997
-0.23161775 -0.010131021 0.95599997
-0.23649999 -0.019138727 0.94599998
-0.23649999 -0.019138727 0.94599998
-0.23467374 -0.019138727 0.94599998
-0.23467374 -0.019138727 0.94599998
-0.24015251 -0.017315991 0.94599998
-0.24015251 -0.017315991 0.94599998
-0.23832625 -0.017315991 0.94599998
-0.23832625 -0.017315991 0.94599998
-0.23241602 0.021426782 0.96700001
-0.23241602 0.021426782 0.96700001
-0.23407818 -0.013742774 0.95099998
-0.23407818 -0.013742774 0.95099998
-0.24928378 -0.028252408 0.94599998
-0.24928378 -0.028252408 0.94599998
-0.23057432 0.044147398 0.97500002
-0.23057432 0.044147398 0.97500002
-0.23622105 0.036632948 0.97500002
-0.23622105 0.036632948 0.97500002
-0.24197876 -0.030075144 0.94599998
-0.24197876 -0.030075144 0.94599998
-0.24015251 -0.030075144 0.94599998
-0.24015251 -0.030075144 0.94599998
-0.24197876 -0.028252408 0.94599998
-0.24197876 -0.028252408 0.94599998
-0.22919497 -0.020961463 0.94599998
-0.22919497 -0.020961463 0.94599998
-0.24380502 -0.030075144 0.94599998
-0.24380502 -0.030075144 0.94599998
-0.23284748 -0.0227842 0.94599998
-0.23284748 -0.0227842 0.94599998
-0.23102123 -0.0227842 0.94599998
-0.23102123 -0.0227842 0.94599998
-0.23467374 -0.020961463 0.94599998
-0.23467374 -0.020961463 0.94599998
-0.23284748 -0.020961463 0.94599998
-0.23284748 -0.020961463 0.94599998
-0.24015251 -0.019138727 0.94599998
-0.24015251 -0.019138727 0.94599998
-0.22510426 0.027491331 0.98400003
-0.22510426 0.027491331 0.98400003
-0.22320464 0.031283237 0.98400003
-0.22320464 0.031283237 0.98400003
-0.23161775 -0.0082890168 0.95599997
-0.23161775 -0.0082890168 0.95599997
-0.23317181 0.048052024 0.97799999
-0.23317181 0.048052024 0.97799999
-0.23832625 -0.019138727 0.94599998
-0.23832625 -0.019138727 0.94599998
-0.23622105 0.034754336 0.97500002
-0.23622105 0.034754336 0.97500002
-0.23433881 0.036632948 0.97500002
-0.23433881 0.036632948 0.97500002
-0.23245656 0.038511563 0.97500002
-0.23245656 0.038511563 0.97500002
-0.23102123 -0.020961463 0.94599998
-0.23102123 -0.020961463 0.94599998
-0.24765928 -0.018875724 0.93300003
-0.24765928 -0.018875724 0.93300003
-0.25180018 -0.02612235 0.935
-0.25180018 -0.02612235 0.935
-0.24999517 -0.02612235 0.935
-0.24999517 -0.02612235 0.935
-0.2489865 -0.026206166 0.93800002
-0.2489865 -0.026206166 0.93800002
-0.24225868 -0.024450867 0.94
-0.24225868 -0.024450867 0.94
-0.24717568 -0.022591522 0.93800002
-0.24717568 -0.022591522 0.93800002
-0.24536487 -0.022591522 0.93800002
-0.24536487 -0.022591522 0.93800002
-0.24355406 -0.022591522 0.93800002
-0.24355406 -0.022591522 0.93800002
-0.24225868 -0.022639692 0.94
-0.24225868 -0.022639692 0.94
-0.24717568 -0.020784201 0.93800002
-0.24717568 -0.020784201 0.93800002
-0.24536487 -0.020784201 0.93800002
-0.24536487 -0.020784201 0.93800002
-0.24485232 -0.028162813 0.94300002
-0.24485232 -0.028162813 0.94300002
-0.24303186 -0.028162813 0.94300002
-0.24303186 -0.028162813 0.94300002
-0.2477027 -0.026262043 0.94
-0.2477027 -0.026262043 0.94
-0.24667278 -0.026345858 0.94300002
-0.24667278 -0.026345858 0.94300002
-0.24485232 -0.026345858 0.94300002
-0.24485232 -0.026345858 0.94300002
-0.24044402 -0.022639692 0.94
-0.24044402 -0.022639692 0.94
-0.24303186 -0.026345858 0.94300002
-0.24303186 -0.026345858 0.94300002
-0.2412114 -0.026345858 0.94300002
-0.2412114 -0.026345858 0.94300002
-0.2477027 -0.024450867 0.94
-0.2477027 -0.024450867 0.94
-0.24588802 -0.024450867 0.94
-0.24588802 -0.024450867 0.94
-0.23757046 -0.024528902 0.94300002
-0.23757046 -0.024528902 0.94300002
-0.23575 -0.024528902 0.94300002
-0.23575 -0.024528902 0.94300002
-0.23392954 -0.024528902 0.94300002
-0.23392954 -0.024528902 0.94300002
-0.23284748 -0.024606936 0.94599998
-0.23284748 -0.024606936 0.94599998
-0.23939092 -0.022711946 0.94300002
-0.23939092 -0.022711946 0.94300002
-0.23757046 -0.022711946 0.94300002
-0.23757046 -0.022711946 0.94300002
-0.23575 -0.022711946 0.94300002
-0.23575 -0.022711946 0.94300002
-0.23392954 -0.022711946 0.94300002
-0.23392954 -0.022711946 0.94300002
-0.23939092 -0.020894991 0.94300002
-0.23939092 -0.020894991 0.94300002
-0.23757046 -0.020894991 0.94300002
-0.23757046 -0.020894991 0.94300002
-0.23245656 0.029118497 0.97500002
-0.23245656 0.029118497 0.97500002
-0.25126159 -0.024268787 0.93300003
-0.25126159 -0.024268787 0.93300003
-0.24946043 -0.024268787 0.93300003
-0.24946043 -0.024268787 0.93300003
-0.24819015 -0.024320809 0.935
-0.24819015 -0.024320809 0.935
-0.23169498 0.010215799 0.96399999
-0.23169498 0.010215799 0.96399999
-0.25126159 -0.022471098 0.93300003
-0.25126159 -0.022471098 0.93300003
-0.24946043 -0.022471098 0.93300003
-0.24946043 -0.022471098 0.93300003
-0.24819015 -0.022519268 0.935
-0.24819015 -0.022519268 0.935
-0.23245656 0.030997111 0.97500002
-0.23245656 0.030997111 0.97500002
-0.25126159 -0.017078035 0.93300003
-0.25126159 -0.017078035 0.93300003
-0.23575 -0.020894991 0.94300002
-0.23575 -0.020894991 0.94300002
-0.25126159 -0.018875724 0.93300003
-0.25126159 -0.018875724 0.93300003
-0.24946043 -0.018875724 0.93300003
-0.24946043 -0.018875724 0.93300003
-0.23575 -0.026345858 0.94300002
-0.23575 -0.026345858 0.94300002
-0.23467374 -0.026429672 0.94599998
-0.23467374 -0.026429672 0.94599998
-0.23939092 -0.024528902 0.94300002
-0.23939092 -0.024528902 0.94300002
-0.23057432 0.038511563 0.97500002
-0.23057432 0.038511563 0.97500002
-0.24015251 -0.028252408 0.94599998
-0.24015251 -0.028252408 0.94599998
-0.23385811 0.030933525 0.97299999
-0.23385811 0.030933525 0.97299999
-0.23433881 0.034754336 0.97500002
-0.23433881 0.034754336 0.97500002
-0.23245656 0.036632948 0.97500002
-0.23245656 0.036632948 0.97500002
-0.24407336 -0.024450867 0.94
-0.24407336 -0.024450867 0.94
-0.24819015 -0.020717727 0.935
-0.24819015 -0.020717727 0.935
-0.23128378 0.031092485 0.97799999
-0.23128378 0.031092485 0.97799999
-0.23009942 0.033078033 0.98100001
-0.23009942 0.033078033 0.98100001
-0.23757046 -0.026345858 0.94300002
-0.23757046 -0.026345858 0.94300002
-0.23757046 -0.028162813 0.94300002
-0.23757046 -0.028162813 0.94300002
-0.23575 -0.028162813 0.94300002
-0.23575 -0.028162813 0.94300002
-0.23939092 -0.026345858 0.94300002
-0.23939092 -0.026345858 0.94300002
-0.22869208 0.038511563 0.97500002
-0.22869208 0.038511563 0.97500002
-0.22869208 0.042268787 0.97500002
-0.22869208 0.042268787 0.97500002
-0.23245656 0.032875724 0.97500002
-0.23245656 0.032875724 0.97500002
-0.23057432 0.032875724 0.97500002
-0.23057432 0.032875724 0.97500002
-0.25126159 -0.020673411 0.93300003
-0.25126159 -0.020673411 0.93300003
-0.24946043 -0.020673411 0.93300003
-0.24946043 -0.020673411 0.93300003
-0.23433881 0.032875724 0.97500002
-0.23433881 0.032875724 0.97500002
-0.22890349 0.019907515 0.98400003
-0.22890349 0.019907515 0.98400003
-0.22700387 0.021803468 0.98400003
-0.22700387 0.021803468 0.98400003
-0.22700387 0.023699423 0.98400003
-0.22700387 0.023699423 0.98400003
-0.23245656 0.034754336 0.97500002
-0.23245656 0.034754336 0.97500002
-0.23057432 0.034754336 0.97500002
-0.23057432 0.034754336 0.97500002
-0.22680984 0.044147398 0.97500002
-0.22680984 0.044147398 0.97500002
-0.23199324 0.023627168 0.98100001
-0.23199324 0.023627168 0.98100001
-0.2308031 0.025595376 0.98400003
-0.2308031 0.025595376 0.98400003
-0.2327027 0.027491331 0.98400003
-0.2327027 0.027491331 0.98400003
-0.2308031 0.027491331 0.98400003
-0.2308031 0.027491331 0.98400003
-0.23128378 0.029208092 0.97799999
-0.23128378 0.029208092 0.97799999
-0.23241602 0.0065211947 0.96700001
-0.23241602 0.0065211947 0.96700001
-0.2412114 -0.024528902 0.94300002
-0.2412114 -0.024528902 0.94300002
-0.23057432 0.036632948 0.97500002
-0.23057432 0.036632948 0.97500002
-0.23128378 0.040514451 0.97799999
-0.23128378 0.040514451 0.97799999
-0.2327027 0.021803468 0.98400003
-0.2327027 0.021803468 0.98400003
-0.2308031 0.023699423 0.98400003
-0.2308031 0.023699423 0.98400003
-0.23199324 0.025517341 0.98100001
-0.23199324 0.025517341 0.98100001
-0.22890349 0.027491331 0.98400003
-0.22890349 0.027491331 0.98400003
-0.23009942 0.034968209 0.98100001
-0.23009942 0.034968209 0.98100001
-0.23009942 0.036858384 0.98100001
-0.23009942 0.036858384 0.98100001
-0.23317181 0.012248554 0.97799999
-0.23317181 0.012248554 0.97799999
-0.22939575 0.040514451 0.97799999
-0.22939575 0.040514451 0.97799999
-0.2297722 -0.011973024 0.95599997
-0.2297722 -0.011973024 0.95599997
-0.2308031 0.029387284 0.98400003
-0.2308031 0.029387284 0.98400003
-0.22624807 0.033347785 0.98900002
-0.22624807 0.033347785 0.98900002
-0.22388513 0.033280347 0.98699999
-0.22388513 0.033280347 0.98699999
-0.22433881 0.035253372 0.98900002
-0.22433881 0.035253372 0.98900002
-0.22197972 0.037083816 0.98699999
-0.22197972 0.037083816 0.98699999
-0.23199324 0.017956648 0.98100001
-0.23199324 0.017956648 0.98100001
-0.22769594 0.027575145 0.98699999
-0.22769594 0.027575145 0.98699999
-0.22960135 0.029476879 0.98699999
-0.22960135 0.029476879 0.98699999
-0.22960135 0.031378612 0.98699999
-0.22960135 0.031378612 0.98699999
-0.22960135 0.033280347 0.98699999
-0.22960135 0.033280347 0.98699999
-0.23146236 0.035467245 0.995
-0.23146236 0.035467245 0.995
-0.23146236 0.037384395 0.995
-0.23146236 0.037384395 0.995
-0.23216024 0.039420038 0.99800003
-0.23216024 0.039420038 0.99800003
-0.23216024 0.04134297 0.99800003
-0.23216024 0.04134297 0.99800003
-0.23023359 0.043265898 0.99800003
-0.23023359 0.043265898 0.99800003
-0.23009942 0.031187862 0.98100001
-0.23009942 0.031187862 0.98100001
-0.23216024 0.043265898 0.99800003
-0.23216024 0.043265898 0.99800003
-0.2297722 -0.013815029 0.95599997
-0.2297722 -0.013815029 0.95599997
-0.22890349 0.021803468 0.98400003
-0.22890349 0.021803468 0.98400003
-0.2308031 0.021803468 0.98400003
-0.2308031 0.021803468 0.98400003
-0.22624807 0.035253372 0.98900002
-0.22624807 0.035253372 0.98900002
-0.23009942 0.017956648 0.98100001
-0.23009942 0.017956648 0.98100001
-0.22890349 0.023699423 0.98400003
-0.22890349 0.023699423 0.98400003
-0.22769594 0.029476879 0.98699999
-0.22769594 0.029476879 0.98699999
-0.22769594 0.031378612 0.98699999
-0.22769594 0.031378612 0.98699999
-0.22954151 0.037384395 0.995
-0.22954151 0.037384395 0.995
-0.22884941 0.035360307 0.99199998
-0.22884941 0.035360307 0.99199998
-0.23009942 0.019846821 0.98100001
-0.23009942 0.019846821 0.98100001
-0.23023359 0.04134297 0.99800003
-0.23023359 0.04134297 0.99800003
-0.22769594 0.033280347 0.98699999
-0.22769594 0.033280347 0.98699999
-0.23023359 0.039420038 0.99800003
-0.23023359 0.039420038 0.99800003
-0.22954151 0.045052987 0.995
-0.22954151 0.045052987 0.995
-0.22433881 0.037158959 0.98900002
-0.22433881 0.037158959 0.98900002
-0.22242954 0.039064549 0.98900002
-0.22242954 0.039064549 0.98900002
-0.22242954 0.044781312 0.98900002
-0.22242954 0.044781312 0.98900002
-0.22052027 0.044781312 0.98900002
-0.22052027 0.044781312 0.98900002
-0.22579055 0.031378612 0.98699999
-0.22579055 0.031378612 0.98699999
-0.22890349 0.025595376 0.98400003
-0.22890349 0.025595376 0.98400003
-0.22624807 0.037158959 0.98900002
-0.22624807 0.037158959 0.98900002
-0.22242954 0.042875722 0.98900002
-0.22242954 0.042875722 0.98900002
-0.22762066 0.045052987 0.995
-0.22762066 0.045052987 0.995
-0.22569981 0.045052987 0.995
-0.22569981 0.045052987 0.995
-0.22700387 0.025595376 0.98400003
-0.22700387 0.025595376 0.98400003
-0.22052027 0.042875722 0.98900002
-0.22052027 0.042875722 0.98900002
-0.22762066 0.039301541 0.995
-0.22762066 0.039301541 0.995
-0.22433881 0.039064549 0.98900002
-0.22433881 0.039064549 0.98900002
-0.22830695 0.04134297 0.99800003
-0.22830695 0.04134297 0.99800003
-0.22830695 0.043265898 0.99800003
-0.22830695 0.043265898 0.99800003
-0.22569981 0.043135837 0.995
-0.22569981 0.043135837 0.995
-0.22569981 0.041218691 0.995
-0.22569981 0.041218691 0.995
-0.22242954 0.040970135 0.98900002
-0.22242954 0.040970135 0.98900002
-0.22510426 0.029387284 0.98400003
-0.22510426 0.029387284 0.98400003
