# .PCD v0.7 - Point Cloud Data file format
VERSION 0.7
FIELDS x y z
SIZE 4 4 4
TYPE F F F
COUNT 1 1 1
WIDTH 698
HEIGHT 1
VIEWPOINT 0 0 0 1 0 0 0
POINTS 698
DATA ascii
-0.12265445 0.045789983 0.97000003
-0.12078185 0.045789983 0.97000003
-0.12639962 0.047658961 0.97000003
-0.12452703 0.047658961 0.97000003
-0.12265445 0.047658961 0.97000003
-0.12078185 0.047658961 0.97000003
-0.13720946 0.049374759 0.96700001
-0.13534267 0.049374759 0.96700001
-0.13347587 0.049374759 0.96700001
-0.13160907 0.049374759 0.96700001
-0.12974228 0.049374759 0.96700001
-0.12787548 0.049374759 0.96700001
-0.12600869 0.049374759 0.96700001
-0.12414189 0.049374759 0.96700001
-0.1222751 0.049374759 0.96700001
-0.1204083 0.049374759 0.96700001
-0.14280985 0.051237959 0.96700001
-0.14094305 0.051237959 0.96700001
-0.13907626 0.051237959 0.96700001
-0.13720946 0.051237959 0.96700001
-0.13534267 0.051237959 0.96700001
-0.13347587 0.051237959 0.96700001
-0.13160907 0.051237959 0.96700001
-0.12974228 0.051237959 0.96700001
-0.12787548 0.051237959 0.96700001
-0.12600869 0.051237959 0.96700001
-0.12414189 0.051237959 0.96700001
-0.1222751 0.051237959 0.96700001
-0.12003475 0.051078998 0.96399999
-0.15779535 0.052497108 0.95599997
-0.1559498 0.052497108 0.95599997
-0.15410425 0.052497108 0.95599997
-0.15225868 0.052497108 0.95599997
-0.15088513 0.052661851 0.95899999
-0.14903378 0.052661851 0.95899999
-0.14764287 0.052826591 0.96200001
-0.14578572 0.052826591 0.96200001
-0.1442278 0.052936416 0.96399999
-0.1423668 0.052936416 0.96399999
-0.14050579 0.052936416 0.96399999
-0.13864478 0.052936416 0.96399999
-0.13678378 0.052936416 0.96399999
-0.13492277 0.052936416 0.96399999
-0.13306178 0.052936416 0.96399999
-0.13120078 0.052936416 0.96399999
-0.12933977 0.052936416 0.96399999
-0.12747876 0.052936416 0.96399999
-0.12561776 0.052936416 0.96399999
-0.12375675 0.052936416 0.96399999
-0.12189575 0.052936416 0.96399999
-0.12003475 0.052936416 0.96399999
-0.15779535 0.054339111 0.95599997
-0.1559498 0.054339111 0.95599997
-0.15410425 0.054339111 0.95599997
-0.15225868 0.054339111 0.95599997
-0.15041313 0.054339111 0.95599997
-0.14856756 0.054339111 0.95599997
-0.14718243 0.054509632 0.95899999
-0.14578572 0.054680154 0.96200001
-0.14392857 0.054680154 0.96200001
-0.1423668 0.054793835 0.96399999
-0.14050579 0.054793835 0.96399999
-0.13864478 0.054793835 0.96399999
-0.13678378 0.054793835 0.96399999
-0.13492277 0.054793835 0.96399999
-0.13306178 0.054793835 0.96399999
-0.13120078 0.054793835 0.96399999
-0.12933977 0.054793835 0.96399999
-0.12747876 0.054793835 0.96399999
-0.12561776 0.054793835 0.96399999
-0.12375675 0.054793835 0.96399999
-0.12189575 0.054793835 0.96399999
-0.11978572 0.054680154 0.96200001
-0.15746525 0.056063585 0.954
-0.15562356 0.056063585 0.954
-0.15410425 0.056181114 0.95599997
-0.15225868 0.056181114 0.95599997
-0.15041313 0.056181114 0.95599997
-0.14856756 0.056181114 0.95599997
-0.14718243 0.056357417 0.95899999
-0.14533108 0.056357417 0.95899999
-0.14347973 0.056357417 0.95899999
-0.14162837 0.056357417 0.95899999
-0.14021429 0.05653372 0.96200001
-0.13835715 0.05653372 0.96200001
-0.1365 0.05653372 0.96200001
-0.13464285 0.05653372 0.96200001
-0.13278572 0.05653372 0.96200001
-0.13092858 0.05653372 0.96200001
-0.12907143 0.05653372 0.96200001
-0.12721428 0.05653372 0.96200001
-0.12535715 0.05653372 0.96200001
-0.1235 0.05653372 0.96200001
-0.12164286 0.05653372 0.96200001
-0.11978572 0.05653372 0.96200001
-0.15746525 0.057901733 0.954
-0.15562356 0.057901733 0.954
-0.15378185 0.057901733 0.954
-0.15194015 0.057901733 0.954
-0.15009846 0.057901733 0.954
-0.14825675 0.057901733 0.954
-0.146722 0.058023121 0.95599997
-0.14487645 0.058023121 0.95599997
-0.14303088 0.058023121 0.95599997
-0.14118533 0.058023121 0.95599997
-0.13977702 0.058205202 0.95899999
-0.13792567 0.058205202 0.95899999
-0.13607432 0.058205202 0.95899999
-0.13422297 0.058205202 0.95899999
-0.13237162 0.058205202 0.95899999
-0.13052027 0.058205202 0.95899999
-0.12866892 0.058205202 0.95899999
-0.12681757 0.058205202 0.95899999
-0.12496621 0.058205202 0.95899999
-0.12311486 0.058205202 0.95899999
-0.12126351 0.058205202 0.95899999
-0.11941216 0.058205202 0.95899999
-0.15746525 0.059739884 0.954
-0.15562356 0.059739884 0.954
-0.15378185 0.059739884 0.954
-0.15194015 0.059739884 0.954
-0.15009846 0.059739884 0.954
-0.14825675 0.059739884 0.954
-0.14641505 0.059739884 0.954
-0.14457336 0.059739884 0.954
-0.14273167 0.059739884 0.954
-0.14088996 0.059739884 0.954
-0.13904826 0.059739884 0.954
-0.13749421 0.059865125 0.95599997
-0.13564864 0.059865125 0.95599997
-0.13380308 0.059865125 0.95599997
-0.13195753 0.059865125 0.95599997
-0.13011196 0.059865125 0.95599997
-0.12826641 0.059865125 0.95599997
-0.12642084 0.059865125 0.95599997
-0.12457529 0.059865125 0.95599997
-0.12272973 0.059865125 0.95599997
-0.12088417 0.059865125 0.95599997
-0.1190386 0.059865125 0.95599997
-0.11719304 0.059865125 0.95599997
-0.15746525 0.061578035 0.954
-0.15562356 0.061578035 0.954
-0.15378185 0.061578035 0.954
-0.15194015 0.061578035 0.954
-0.15009846 0.061578035 0.954
-0.14825675 0.061578035 0.954
-0.14641505 0.061578035 0.954
-0.14457336 0.061578035 0.954
-0.14228281 0.061384391 0.95099998
-0.1404469 0.061384391 0.95099998
-0.13904826 0.061578035 0.954
-0.13720657 0.061578035 0.954
-0.13536486 0.061578035 0.954
-0.13310328 0.061384391 0.95099998
-0.13126737 0.061384391 0.95099998
-0.12983976 0.061578035 0.954
-0.12799807 0.061578035 0.954
-0.12615637 0.061578035 0.954
-0.12431467 0.061578035 0.954
-0.12247297 0.061578035 0.954
-0.12088417 0.061707128 0.95599997
-0.1190386 0.061707128 0.95599997
-0.11719304 0.061707128 0.95599997
-0.15697007 0.063216761 0.95099998
-0.15513417 0.063216761 0.95099998
-0.15281467 0.063017339 0.94800001
-0.15098456 0.063017339 0.94800001
-0.14915444 0.063017339 0.94800001
-0.14732432 0.063017339 0.94800001
-0.14549421 0.063017339 0.94800001
-0.14366409 0.063017339 0.94800001
-0.14183398 0.063017339 0.94800001
-0.14000386 0.063017339 0.94800001
-0.13817374 0.063017339 0.94800001
-0.13677509 0.063216761 0.95099998
-0.13451351 0.063017339 0.94800001
-0.1326834 0.063017339 0.94800001
-0.13085328 0.063017339 0.94800001
-0.12943147 0.063216761 0.95099998
-0.12719305 0.063017339 0.94800001
-0.12536293 0.063017339 0.94800001
-0.12392374 0.063216761 0.95099998
-0.12208784 0.063216761 0.95099998
-0.15697007 0.065049134 0.95099998
-0.15464479 0.06484393 0.94800001
-0.15249227 0.06470713 0.94599998
-0.15066601 0.06470713 0.94599998
-0.14883977 0.06470713 0.94599998
-0.14701352 0.06470713 0.94599998
-0.14518726 0.06470713 0.94599998
-0.143361 0.06470713 0.94599998
-0.14153475 0.06470713 0.94599998
-0.13970849 0.06470713 0.94599998
-0.13817374 0.06484393 0.94800001
-0.13634363 0.06484393 0.94800001
-0.13451351 0.06484393 0.94800001
-0.1326834 0.06484393 0.94800001
-0.13085328 0.06484393 0.94800001
-0.12902316 0.06484393 0.94800001
-0.12719305 0.06484393 0.94800001
-0.12536293 0.06484393 0.94800001
-0.12353282 0.06484393 0.94800001
-0.1217027 0.06484393 0.94800001
-0.11987258 0.06484393 0.94800001
-0.11474421 0.065049134 0.95099998
-0.1129083 0.065049134 0.95099998
-0.15464479 0.066670522 0.94800001
-0.15249227 0.066529863 0.94599998
-0.15066601 0.066529863 0.94599998
-0.14883977 0.066529863 0.94599998
-0.14701352 0.066529863 0.94599998
-0.14518726 0.066529863 0.94599998
-0.143361 0.066529863 0.94599998
-0.14153475 0.066529863 0.94599998
-0.13970849 0.066529863 0.94599998
-0.13788223 0.066529863 0.94599998
-0.13605598 0.066529863 0.94599998
-0.13422972 0.066529863 0.94599998
-0.13240348 0.066529863 0.94599998
-0.13057722 0.066529863 0.94599998
-0.12875096 0.066529863 0.94599998
-0.12692471 0.066529863 0.94599998
-0.12509845 0.066529863 0.94599998
-0.1232722 0.066529863 0.94599998
-0.12144595 0.066529863 0.94599998
-0.11987258 0.066670522 0.94800001
-0.11804248 0.066670522 0.94800001
-0.1129083 0.0668815 0.95099998
-0.11107239 0.0668815 0.95099998
-0.15431853 0.068352602 0.94599998
-0.1520087 0.068135843 0.94300002
-0.15018822 0.068135843 0.94300002
-0.14836776 0.068135843 0.94300002
-0.14608108 0.067919075 0.94
-0.14426641 0.067919075 0.94
-0.14290637 0.068135843 0.94300002
-0.14108591 0.068135843 0.94300002
-0.13926545 0.068135843 0.94300002
-0.13744499 0.068135843 0.94300002
-0.13562451 0.068135843 0.94300002
-0.13380405 0.068135843 0.94300002
-0.13198359 0.068135843 0.94300002
-0.13016313 0.068135843 0.94300002
-0.12834267 0.068135843 0.94300002
-0.1265222 0.068135843 0.94300002
-0.12470174 0.068135843 0.94300002
-0.1232722 0.068352602 0.94599998
-0.12144595 0.068352602 0.94599998
-0.11961969 0.068352602 0.94599998
-0.11804248 0.068497114 0.94800001
-0.11621236 0.068497114 0.94800001
-0.11438224 0.068497114 0.94800001
-0.11255213 0.068497114 0.94800001
-0.11107239 0.068713874 0.95099998
-0.10923649 0.068713874 0.95099998
-0.15431853 0.070175335 0.94599998
-0.1520087 0.069952793 0.94300002
-0.15018822 0.069952793 0.94300002
-0.14789575 0.069730252 0.94
-0.14577027 0.069581889 0.93800002
-0.14395946 0.069581889 0.93800002
-0.14214866 0.069581889 0.93800002
-0.14033784 0.069581889 0.93800002
-0.13882239 0.069730252 0.94
-0.13744499 0.069952793 0.94300002
-0.13562451 0.069952793 0.94300002
-0.13380405 0.069952793 0.94300002
-0.13198359 0.069952793 0.94300002
-0.13016313 0.069952793 0.94300002
-0.12834267 0.069952793 0.94300002
-0.1265222 0.069952793 0.94300002
-0.12470174 0.069952793 0.94300002
-0.12288128 0.069952793 0.94300002
-0.12144595 0.070175335 0.94599998
-0.11961969 0.070175335 0.94599998
-0.11779343 0.070175335 0.94599998
-0.11621236 0.070323698 0.94800001
-0.11438224 0.070323698 0.94800001
-0.11255213 0.070323698 0.94800001
-0.11072201 0.070323698 0.94800001
-0.1088919 0.070323698 0.94800001
-0.1520087 0.071769752 0.94300002
-0.15018822 0.071769752 0.94300002
-0.14710908 0.07116089 0.935
-0.14499325 0.071008675 0.93300003
-0.14319208 0.071008675 0.93300003
-0.14169401 0.07116089 0.935
-0.139889 0.07116089 0.935
-0.12834267 0.071769752 0.94300002
-0.1265222 0.071769752 0.94300002
-0.12470174 0.071769752 0.94300002
-0.12288128 0.071769752 0.94300002
-0.12144595 0.071998075 0.94599998
-0.11961969 0.071998075 0.94599998
-0.11779343 0.071998075 0.94599998
-0.11596718 0.071998075 0.94599998
-0.11414093 0.071998075 0.94599998
-0.11255213 0.07215029 0.94800001
-0.11072201 0.07215029 0.94800001
-0.1088919 0.07215029 0.94800001
-0.14679441 0.072806358 0.93300003
-0.14499325 0.072806358 0.93300003
-0.14319208 0.072806358 0.93300003
-0.12611969 0.073352598 0.94
-0.12430502 0.073352598 0.94
-0.12288128 0.07358671 0.94300002
-0.12144595 0.073820807 0.94599998
-0.11961969 0.073820807 0.94599998
-0.11779343 0.073820807 0.94599998
-0.11596718 0.073820807 0.94599998
-0.11414093 0.073820807 0.94599998
-0.11255213 0.073976882 0.94800001
-0.11072201 0.073976882 0.94800001
-0.1088919 0.073976882 0.94800001
-0.14679441 0.074604049 0.93300003
-0.13266891 0.074763969 0.935
-0.1308639 0.074763969 0.935
-0.12947297 0.075003855 0.93800002
-0.12766217 0.075003855 0.93800002
-0.12585135 0.075003855 0.93800002
-0.12430502 0.075163774 0.94
-0.12288128 0.075403661 0.94300002
-0.12106081 0.075403661 0.94300002
-0.11924035 0.075403661 0.94300002
-0.11741988 0.075403661 0.94300002
-0.11596718 0.075643547 0.94599998
-0.11414093 0.075643547 0.94599998
-0.11231467 0.075643547 0.94599998
-0.11072201 0.075803466 0.94800001
-0.1088919 0.075803466 0.94800001
-0.13598746 0.076401733 0.93300003
-0.1341863 0.076401733 0.93300003
-0.13266891 0.076565512 0.935
-0.1308639 0.076565512 0.935
-0.12947297 0.07681118 0.93800002
-0.12766217 0.07681118 0.93800002
-0.12585135 0.07681118 0.93800002
-0.12430502 0.076974951 0.94
-0.12288128 0.077220619 0.94300002
-0.12106081 0.077220619 0.94300002
-0.11924035 0.077220619 0.94300002
-0.11741988 0.077220619 0.94300002
-0.11596718 0.077466279 0.94599998
-0.11414093 0.077466279 0.94599998
-0.11231467 0.077466279 0.94599998
-0.12947297 0.078618497 0.93800002
-0.12766217 0.078618497 0.93800002
-0.12611969 0.078786127 0.94
-0.12430502 0.078786127 0.94
-0.12288128 0.079037577 0.94300002
-0.12106081 0.079037577 0.94300002
-0.11559942 0.079037577 0.94300002
-0.11414093 0.079289019 0.94599998
-0.12585135 0.080425821 0.93800002
-0.12430502 0.080597304 0.94
-0.12585135 0.082233146 0.93800002
-0.11072973 0.049221579 0.96399999
-0.11072973 0.049221579 0.96399999
-0.11817374 0.051078998 0.96399999
-0.11817374 0.051078998 0.96399999
-0.11631274 0.051078998 0.96399999
-0.11631274 0.051078998 0.96399999
-0.11445174 0.051078998 0.96399999
-0.11445174 0.051078998 0.96399999
-0.11259073 0.051078998 0.96399999
-0.11259073 0.051078998 0.96399999
-0.10958108 0.050549131 0.954
-0.10958108 0.050549131 0.954
-0.10773938 0.050549131 0.954
-0.10773938 0.050549131 0.954
-0.11817374 0.052936416 0.96399999
-0.11817374 0.052936416 0.96399999
-0.11631274 0.052936416 0.96399999
-0.11631274 0.052936416 0.96399999
-0.11445174 0.052936416 0.96399999
-0.11445174 0.052936416 0.96399999
-0.11235715 0.052826591 0.96200001
-0.11235715 0.052826591 0.96200001
-0.10958108 0.052387282 0.954
-0.10958108 0.052387282 0.954
-0.10773938 0.052387282 0.954
-0.10773938 0.052387282 0.954
-0.10611968 0.052497108 0.95599997
-0.10611968 0.052497108 0.95599997
-0.11792857 0.054680154 0.96200001
-0.11792857 0.054680154 0.96200001
-0.11607143 0.054680154 0.96200001
-0.11607143 0.054680154 0.96200001
-0.11445174 0.054793835 0.96399999
-0.11445174 0.054793835 0.96399999
-0.11235715 0.054680154 0.96200001
-0.11235715 0.054680154 0.96200001
-0.10981081 0.054339111 0.95599997
-0.10981081 0.054339111 0.95599997
-0.10796525 0.054339111 0.95599997
-0.10796525 0.054339111 0.95599997
-0.10611968 0.054339111 0.95599997
-0.10611968 0.054339111 0.95599997
-0.10427413 0.054339111 0.95599997
-0.10427413 0.054339111 0.95599997
-0.11756081 0.056357417 0.95899999
-0.11756081 0.056357417 0.95899999
-0.11570946 0.056357417 0.95899999
-0.11570946 0.056357417 0.95899999
-0.11421429 0.05653372 0.96200001
-0.11421429 0.05653372 0.96200001
-0.11235715 0.05653372 0.96200001
-0.11235715 0.05653372 0.96200001
-0.10981081 0.056181114 0.95599997
-0.10981081 0.056181114 0.95599997
-0.10796525 0.056181114 0.95599997
-0.10796525 0.056181114 0.95599997
-0.10611968 0.056181114 0.95599997
-0.10611968 0.056181114 0.95599997
-0.10427413 0.056181114 0.95599997
-0.10427413 0.056181114 0.95599997
-0.11756081 0.058205202 0.95899999
-0.11756081 0.058205202 0.95899999
-0.11570946 0.058205202 0.95899999
-0.11570946 0.058205202 0.95899999
-0.11350193 0.058023121 0.95599997
-0.11350193 0.058023121 0.95599997
-0.11165637 0.058023121 0.95599997
-0.11165637 0.058023121 0.95599997
-0.10958108 0.057901733 0.954
-0.10958108 0.057901733 0.954
-0.10773938 0.057901733 0.954
-0.10773938 0.057901733 0.954
-0.10611968 0.058023121 0.95599997
-0.10611968 0.058023121 0.95599997
-0.11534749 0.059865125 0.95599997
-0.11534749 0.059865125 0.95599997
-0.11350193 0.059865125 0.95599997
-0.11350193 0.059865125 0.95599997
-0.11165637 0.059865125 0.95599997
-0.11165637 0.059865125 0.95599997
-0.10958108 0.059739884 0.954
-0.10958108 0.059739884 0.954
-0.10773938 0.059739884 0.954
-0.10773938 0.059739884 0.954
-0.11350193 0.061707128 0.95599997
-0.11350193 0.061707128 0.95599997
-0.11165637 0.061707128 0.95599997
-0.11165637 0.061707128 0.95599997
-0.11107239 0.065049134 0.95099998
-0.11107239 0.065049134 0.95099998
-0.10923649 0.0668815 0.95099998
-0.10923649 0.0668815 0.95099998
-0.12063127 0.063416183 0.954
-0.12063127 0.063416183 0.954
-0.1167973 0.085847788 0.93800002
-0.1167973 0.085847788 0.93800002
-0.11523166 0.08240848 0.94
-0.11523166 0.08240848 0.94
-0.11341698 0.08240848 0.94
-0.11341698 0.08240848 0.94
-0.11704633 0.084219649 0.94
-0.11704633 0.084219649 0.94
-0.1218388 0.085573219 0.935
-0.1218388 0.085573219 0.935
-0.12041892 0.085847788 0.93800002
-0.12041892 0.085847788 0.93800002
-0.11860811 0.085847788 0.93800002
-0.11860811 0.085847788 0.93800002
-0.11878958 0.063416183 0.954
-0.11878958 0.063416183 0.954
-0.10978764 0.08240848 0.94
-0.10978764 0.08240848 0.94
-0.11841602 0.065049134 0.95099998
-0.11841602 0.065049134 0.95099998
-0.11924035 0.079037577 0.94300002
-0.11924035 0.079037577 0.94300002
-0.11741988 0.079037577 0.94300002
-0.11741988 0.079037577 0.94300002
-0.12249035 0.080597304 0.94
-0.12249035 0.080597304 0.94
-0.12106081 0.080854528 0.94300002
-0.12106081 0.080854528 0.94300002
-0.11924035 0.080854528 0.94300002
-0.11924035 0.080854528 0.94300002
-0.12404054 0.082233146 0.93800002
-0.12404054 0.082233146 0.93800002
-0.12249035 0.08240848 0.94
-0.12249035 0.08240848 0.94
-0.11658011 0.0668815 0.95099998
-0.11658011 0.0668815 0.95099998
-0.11474421 0.0668815 0.95099998
-0.11474421 0.0668815 0.95099998
-0.10923649 0.065049134 0.95099998
-0.10923649 0.065049134 0.95099998
-0.11160231 0.08240848 0.94
-0.11160231 0.08240848 0.94
-0.11741988 0.080854528 0.94300002
-0.11741988 0.080854528 0.94300002
-0.12067568 0.08240848 0.94
-0.12067568 0.08240848 0.94
-0.11694787 0.063416183 0.954
-0.11694787 0.063416183 0.954
-0.13447393 0.07116089 0.935
-0.13447393 0.07116089 0.935
-0.13309459 0.071389213 0.93800002
-0.13309459 0.071389213 0.93800002
-0.13156371 0.071541429 0.94
-0.13156371 0.071541429 0.94
-0.13958977 0.072806358 0.93300003
-0.13958977 0.072806358 0.93300003
-0.13778861 0.072806358 0.93300003
-0.13778861 0.072806358 0.93300003
-0.13598746 0.072806358 0.93300003
-0.13598746 0.072806358 0.93300003
-0.13447393 0.072962426 0.935
-0.13447393 0.072962426 0.935
-0.13266891 0.072962426 0.935
-0.13266891 0.072962426 0.935
-0.13128379 0.07319653 0.93800002
-0.13128379 0.07319653 0.93800002
-0.12947297 0.07319653 0.93800002
-0.12947297 0.07319653 0.93800002
-0.12793437 0.073352598 0.94
-0.12793437 0.073352598 0.94
-0.1409363 0.074364163 0.93000001
-0.1409363 0.074364163 0.93000001
-0.13914093 0.074364163 0.93000001
-0.13914093 0.074364163 0.93000001
-0.13734557 0.074364163 0.93000001
-0.13734557 0.074364163 0.93000001
-0.13598746 0.074604049 0.93300003
-0.13598746 0.074604049 0.93300003
-0.14273167 0.076156072 0.93000001
-0.14273167 0.076156072 0.93000001
-0.1409363 0.076156072 0.93000001
-0.1409363 0.076156072 0.93000001
-0.14319208 0.078199424 0.93300003
-0.14319208 0.078199424 0.93300003
-0.11658011 0.065049134 0.95099998
-0.11658011 0.065049134 0.95099998
-0.11048841 0.077466279 0.94599998
-0.11048841 0.077466279 0.94599998
-0.1088919 0.077630058 0.94800001
-0.1088919 0.077630058 0.94800001
-0.11231467 0.079289019 0.94599998
-0.11231467 0.079289019 0.94599998
-0.11704633 0.08240848 0.94
-0.11704633 0.08240848 0.94
-0.12041892 0.084040463 0.93800002
-0.12041892 0.084040463 0.93800002
-0.118861 0.084219649 0.94
-0.118861 0.084219649 0.94
-0.13808398 0.07116089 0.935
-0.13808398 0.07116089 0.935
-0.13627896 0.07116089 0.935
-0.13627896 0.07116089 0.935
-0.14139093 0.072806358 0.93300003
-0.14139093 0.072806358 0.93300003
-0.14452703 0.074364163 0.93000001
-0.14452703 0.074364163 0.93000001
-0.14273167 0.074364163 0.93000001
-0.14273167 0.074364163 0.93000001
-0.14452703 0.076156072 0.93000001
-0.14452703 0.076156072 0.93000001
-0.12766217 0.080425821 0.93800002
-0.12766217 0.080425821 0.93800002
-0.118861 0.08240848 0.94
-0.118861 0.08240848 0.94
-0.1119585 0.080854528 0.94300002
-0.1119585 0.080854528 0.94300002
-0.11013804 0.080854528 0.94300002
-0.11013804 0.080854528 0.94300002
-0.11559942 0.080854528 0.94300002
-0.11559942 0.080854528 0.94300002
-0.12364382 0.083771676 0.935
-0.12364382 0.083771676 0.935
-0.12222973 0.084040463 0.93800002
-0.12222973 0.084040463 0.93800002
-0.11510618 0.063416183 0.954
-0.11510618 0.063416183 0.954
-0.11326448 0.063416183 0.954
-0.11326448 0.063416183 0.954
-0.11377896 0.080854528 0.94300002
-0.11377896 0.080854528 0.94300002
-0.13734557 0.076156072 0.93000001
-0.13734557 0.076156072 0.93000001
-0.13884169 0.077780344 0.92799997
-0.13884169 0.077780344 0.92799997
-0.1370502 0.077780344 0.92799997
-0.1370502 0.077780344 0.92799997
-0.1355502 0.077947974 0.93000001
-0.1355502 0.077947974 0.93000001
-0.1341863 0.078199424 0.93300003
-0.1341863 0.078199424 0.93300003
-0.13238513 0.078199424 0.93300003
-0.13238513 0.078199424 0.93300003
-0.1308639 0.078367054 0.935
-0.1308639 0.078367054 0.935
-0.1406332 0.079568401 0.92799997
-0.1406332 0.079568401 0.92799997
-0.13884169 0.079568401 0.92799997
-0.13884169 0.079568401 0.92799997
-0.1370502 0.079568401 0.92799997
-0.1370502 0.079568401 0.92799997
-0.1355502 0.079739884 0.93000001
-0.1355502 0.079739884 0.93000001
-0.1341863 0.079997115 0.93300003
-0.1341863 0.079997115 0.93300003
-0.13238513 0.079997115 0.93300003
-0.13238513 0.079997115 0.93300003
-0.1308639 0.08016859 0.935
-0.1308639 0.08016859 0.935
-0.12947297 0.080425821 0.93800002
-0.12947297 0.080425821 0.93800002
-0.13839287 0.081093453 0.92500001
-0.13839287 0.081093453 0.92500001
-0.13660714 0.081093453 0.92500001
-0.13660714 0.081093453 0.92500001
-0.1355502 0.081531793 0.93000001
-0.1355502 0.081531793 0.93000001
-0.1341863 0.081794798 0.93300003
-0.1341863 0.081794798 0.93300003
-0.13238513 0.081794798 0.93300003
-0.13238513 0.081794798 0.93300003
-0.13839287 0.082875721 0.92500001
-0.13839287 0.082875721 0.92500001
-0.13660714 0.082875721 0.92500001
-0.13660714 0.082875721 0.92500001
-0.13627896 0.083771676 0.935
-0.13627896 0.083771676 0.935
-0.13447393 0.083771676 0.935
-0.13447393 0.083771676 0.935
-0.13266891 0.083771676 0.935
-0.13266891 0.083771676 0.935
-0.13808398 0.085573219 0.935
-0.13808398 0.085573219 0.935
-0.13598746 0.085390173 0.93300003
-0.13598746 0.085390173 0.93300003
-0.1341863 0.085390173 0.93300003
-0.1341863 0.085390173 0.93300003
-0.13266891 0.085573219 0.935
-0.13266891 0.085573219 0.935
-0.13598746 0.087187864 0.93300003
-0.13598746 0.087187864 0.93300003
-0.1341863 0.087187864 0.93300003
-0.1341863 0.087187864 0.93300003
-0.12974903 0.071541429 0.94
-0.12974903 0.071541429 0.94
-0.11048841 0.079289019 0.94599998
-0.11048841 0.079289019 0.94599998
-0.1308639 0.081970133 0.935
-0.1308639 0.081970133 0.935
-0.11534749 0.061707128 0.95599997
-0.11534749 0.061707128 0.95599997
-0.11142278 0.063416183 0.954
-0.11142278 0.063416183 0.954
-0.10958108 0.063416183 0.954
-0.10958108 0.063416183 0.954
-0.12905888 0.085573219 0.935
-0.12905888 0.085573219 0.935
-0.12725386 0.081970133 0.935
-0.12725386 0.081970133 0.935
-0.12905888 0.083771676 0.935
-0.12905888 0.083771676 0.935
-0.1308639 0.085573219 0.935
-0.1308639 0.085573219 0.935
-0.12364382 0.085573219 0.935
-0.12364382 0.085573219 0.935
-0.10958108 0.061578035 0.954
-0.10958108 0.061578035 0.954
-0.10773938 0.061578035 0.954
-0.10773938 0.061578035 0.954
-0.12905888 0.081970133 0.935
-0.12905888 0.081970133 0.935
-0.1308639 0.083771676 0.935
-0.1308639 0.083771676 0.935
-0.12544884 0.083771676 0.935
-0.12544884 0.083771676 0.935
-0.12725386 0.085573219 0.935
-0.12725386 0.085573219 0.935
-0.12878282 0.087187864 0.93300003
-0.12878282 0.087187864 0.93300003
-0.12544884 0.085573219 0.935
-0.12544884 0.085573219 0.935
-0.1341863 0.074604049 0.93300003
-0.1341863 0.074604049 0.93300003
-0.12725386 0.083771676 0.935
-0.12725386 0.083771676 0.935
-0.13058399 0.087187864 0.93300003
-0.13058399 0.087187864 0.93300003
-0.13058399 0.088985555 0.93300003
-0.13058399 0.088985555 0.93300003
-0.13914093 0.076156072 0.93000001
-0.13914093 0.076156072 0.93000001
-0.1406332 0.077780344 0.92799997
-0.1406332 0.077780344 0.92799997
-0.13238513 0.087187864 0.93300003
-0.13238513 0.087187864 0.93300003
-0.1341863 0.088985555 0.93300003
-0.1341863 0.088985555 0.93300003
-0.13238513 0.088985555 0.93300003
-0.13238513 0.088985555 0.93300003
