# .PCD v0.7 - Point Cloud Data file format
VERSION 0.7
FIELDS x y z
SIZE 4 4 4
TYPE F F F
COUNT 1 1 1
WIDTH 323
HEIGHT 1
VIEWPOINT 0 0 0 1 0 0 0
POINTS 323
DATA ascii
0.021761583 0.15203756 0.83499998
0.021761583 0.15364642 0.83499998
0.021761583 0.15525529 0.83499998
0.020197878 0.15723988 0.83700001
0.021761583 0.15686415 0.83499998
0.020149613 0.15847301 0.83499998
0.023261582 0.15771386 0.83099997
0.024805984 0.1573343 0.829
0.018582046 0.16046531 0.83700001
0.020149613 0.16008188 0.83499998
0.023261582 0.15931502 0.83099997
0.024805984 0.1589316 0.829
0.026278958 0.15816474 0.82499999
0.018582046 0.16207804 0.83700001
0.020149613 0.16169074 0.83499998
0.021761583 0.16169074 0.83499998
0.023317568 0.16130348 0.833
0.024805984 0.1605289 0.829
0.026278958 0.15975434 0.82499999
0.018537644 0.16329961 0.83499998
0.020149613 0.16329961 0.83499998
0.021761583 0.16329961 0.83499998
0.023373552 0.16329961 0.83499998
0.024805984 0.1621262 0.829
0.026278958 0.16134393 0.82499999
0.018537644 0.16490847 0.83499998
0.020149613 0.16490847 0.83499998
0.021761583 0.16490847 0.83499998
0.023373552 0.16490847 0.83499998
0.024805984 0.1637235 0.829
0.026215252 0.16253854 0.82300001
0.029107142 0.16095857 0.815
0.018537644 0.16651733 0.83499998
0.020149613 0.16651733 0.83499998
0.021761583 0.16651733 0.83499998
0.023373552 0.16651733 0.83499998
0.024805984 0.16532081 0.829
0.026215252 0.16412428 0.82300001
0.027668919 0.16332659 0.81900001
0.029107142 0.1625289 0.815
0.018626448 0.1689316 0.83899999
0.020197878 0.1685289 0.83700001
0.021813707 0.1685289 0.83700001
0.023373552 0.1681262 0.83499998
0.024805984 0.16691811 0.829
0.026215252 0.16571002 0.82300001
0.027668919 0.16490462 0.81900001
0.029107142 0.16409923 0.815
0.020197878 0.17014162 0.83700001
0.021761583 0.16973506 0.83499998
0.023317568 0.16932851 0.833
0.02474614 0.16810887 0.82700002
0.026278958 0.1677023 0.82499999
0.027736485 0.16688921 0.82099998
0.029178571 0.16607611 0.81699997
0.020197878 0.17175433 0.83700001
0.021761583 0.17134392 0.83499998
0.023261582 0.17052312 0.83099997
0.02474614 0.16970232 0.82700002
0.026278958 0.1692919 0.82499999
0.027736485 0.1684711 0.82099998
0.029178571 0.16765028 0.81699997
0.021709459 0.17253853 0.833
0.023205599 0.17171001 0.829
0.02474614 0.17129576 0.82700002
0.026278958 0.17088149 0.82499999
0.027736485 0.17005298 0.82099998
0.029178571 0.16922447 0.81699997
0.030680502 0.16881022 0.815
0.021709459 0.17414355 0.833
0.023205599 0.17330731 0.829
0.02474614 0.17288922 0.82700002
0.026278958 0.17247109 0.82499999
0.027736485 0.17163487 0.82099998
0.02925 0.17121677 0.81900001
0.030680502 0.17038053 0.815
0.023205599 0.17490463 0.829
0.02474614 0.17448266 0.82700002
0.026342664 0.17448266 0.82700002
0.027804054 0.17363873 0.82300001
0.02925 0.1727948 0.81900001
0.030605214 0.17152891 0.81300002
0.023373552 0.17777938 0.83499998
0.024805984 0.17650193 0.829
0.026342664 0.17607611 0.82700002
0.027871622 0.17565028 0.82499999
0.029321428 0.17479865 0.82099998
0.030605214 0.17309538 0.81300002
0.023429537 0.17981791 0.83700001
0.024805984 0.17809923 0.829
0.02640637 0.17809923 0.829
0.027871622 0.17723988 0.82499999
0.029321428 0.17638053 0.82099998
0.030680502 0.17509152 0.815
0.03217471 0.17466186 0.81300002
0.023429537 0.18143064 0.83700001
0.024805984 0.17969653 0.829
0.026342664 0.17926301 0.82700002
0.027871622 0.17882948 0.82499999
0.029321428 0.17796242 0.82099998
0.03075579 0.17709537 0.81699997
0.03217471 0.17622833 0.81300002
0.023485521 0.18348072 0.83899999
0.024805984 0.18129383 0.829
0.026342664 0.18085647 0.82700002
0.027871622 0.18041907 0.82499999
0.029392857 0.17998169 0.82300001
0.030831082 0.17910694 0.81900001
0.03217471 0.1777948 0.81300002
0.023541506 0.18553855 0.84100002
0.024805984 0.18289113 0.829
0.026342664 0.18244991 0.82700002
0.027871622 0.18200867 0.82499999
0.029392857 0.18156745 0.82300001
0.030831082 0.18068497 0.81900001
0.03217471 0.17936128 0.81300002
0.023485521 0.18671387 0.83899999
0.025045367 0.18626879 0.83700001
0.02640637 0.18448845 0.829
0.027871622 0.18359827 0.82499999
0.029464286 0.18359827 0.82499999
0.030831082 0.182263 0.81900001
0.032253861 0.18137284 0.815
0.033744209 0.18092775 0.81300002
0.023485521 0.18833044 0.83899999
0.024805984 0.18608575 0.829
0.026342664 0.1856368 0.82700002
0.027939189 0.1856368 0.82700002
0.029464286 0.18518786 0.82499999
0.030831082 0.18384103 0.81900001
0.032253861 0.18294317 0.815
0.033744209 0.18249422 0.81300002
0.024805984 0.18768305 0.829
0.026342664 0.18723026 0.82700002
0.027939189 0.18723026 0.82700002
0.029464286 0.18677746 0.82499999
0.03090637 0.18587187 0.82099998
0.032333009 0.18496628 0.81699997
0.033827219 0.18451349 0.815
0.02640637 0.18928035 0.829
0.028006757 0.18928035 0.829
0.029464286 0.18836705 0.82499999
0.03090637 0.18745375 0.82099998
0.032333009 0.18654045 0.81699997
0.02640637 0.19087765 0.829
0.028006757 0.19087765 0.829
0.029535715 0.19041716 0.82700002
0.03098166 0.18949614 0.82300001
0.032333009 0.18811464 0.81699997
0.028006757 0.19247495 0.829
0.029535715 0.1920106 0.82700002
0.03113224 0.1920106 0.82700002
0.032728765 0.1920106 0.82700002
0.030529922 0.15548073 0.81099999
0.030529922 0.15548073 0.81099999
0.030605214 0.15743063 0.81300002
0.030605214 0.15743063 0.81300002
0.032095559 0.15704335 0.81099999
0.032095559 0.15704335 0.81099999
0.032095559 0.15860598 0.81099999
0.032095559 0.15860598 0.81099999
0.032095559 0.16016859 0.81099999
0.032095559 0.16016859 0.81099999
0.023037646 0.14668112 0.82300001
0.023037646 0.14668112 0.82300001
0.02309363 0.14862716 0.82499999
0.02309363 0.14862716 0.82499999
0.02309363 0.15021676 0.82499999
0.02309363 0.15021676 0.82499999
0.024626449 0.15143834 0.82300001
0.024626449 0.15143834 0.82300001
0.024626449 0.15302409 0.82300001
0.024626449 0.15302409 0.82300001
0.024626449 0.15460983 0.82300001
0.024626449 0.15460983 0.82300001
0.032095559 0.16173121 0.81099999
0.032095559 0.16173121 0.81099999
0.032095559 0.16329384 0.81099999
0.032095559 0.16329384 0.81099999
0.033661198 0.16329384 0.81099999
0.033661198 0.16329384 0.81099999
0.032095559 0.16485645 0.81099999
0.032095559 0.16485645 0.81099999
0.033661198 0.16485645 0.81099999
0.033661198 0.16485645 0.81099999
0.032095559 0.16641907 0.81099999
0.032095559 0.16641907 0.81099999
0.033661198 0.16641907 0.81099999
0.033661198 0.16641907 0.81099999
0.033661198 0.1679817 0.81099999
0.033661198 0.1679817 0.81099999
0.033578187 0.16912621 0.80900002
0.033578187 0.16912621 0.80900002
0.033661198 0.16173121 0.81099999
0.033661198 0.16173121 0.81099999
0.024387065 0.1452553 0.815
0.024387065 0.1452553 0.815
0.024387065 0.14682563 0.815
0.024387065 0.14682563 0.815
0.024387065 0.14839596 0.815
0.024387065 0.14839596 0.815
0.030605214 0.16213006 0.81300002
0.030605214 0.16213006 0.81300002
0.030605214 0.16369654 0.81300002
0.030605214 0.16369654 0.81300002
0.030605214 0.16526301 0.81300002
0.030605214 0.16526301 0.81300002
0.030605214 0.16682948 0.81300002
0.030605214 0.16682948 0.81300002
0.03217471 0.16839595 0.81300002
0.03217471 0.16839595 0.81300002
0.032095559 0.16954431 0.81099999
0.032095559 0.16954431 0.81099999
0.032095559 0.17110693 0.81099999
0.032095559 0.17110693 0.81099999
0.032095559 0.17266956 0.81099999
0.032095559 0.17266956 0.81099999
0.033661198 0.1757948 0.81099999
0.033661198 0.1757948 0.81099999
0.033661198 0.17735742 0.81099999
0.033661198 0.17735742 0.81099999
0.033661198 0.17892003 0.81099999
0.033661198 0.17892003 0.81099999
0.027668919 0.15859249 0.81900001
0.027668919 0.15859249 0.81900001
0.029035715 0.15273122 0.81300002
0.029035715 0.15273122 0.81300002
0.029035715 0.15429769 0.81300002
0.029035715 0.15429769 0.81300002
0.029035715 0.15586416 0.81300002
0.029035715 0.15586416 0.81300002
0.030605214 0.15899712 0.81300002
0.030605214 0.15899712 0.81300002
0.025960425 0.14996628 0.815
0.025960425 0.14996628 0.815
0.025960425 0.15153661 0.815
0.025960425 0.15153661 0.815
0.027533785 0.15153661 0.815
0.027533785 0.15153661 0.815
0.025960425 0.15310694 0.815
0.025960425 0.15310694 0.815
0.027533785 0.15310694 0.815
0.027533785 0.15310694 0.815
0.026024131 0.15505683 0.81699997
0.026024131 0.15505683 0.81699997
0.027533785 0.15467726 0.815
0.027533785 0.15467726 0.815
0.02760135 0.15663102 0.81699997
0.02760135 0.15663102 0.81699997
0.029107142 0.15781792 0.815
0.029107142 0.15781792 0.815
0.02760135 0.15977938 0.81699997
0.02760135 0.15977938 0.81699997
0.029107142 0.15938824 0.815
0.029107142 0.15938824 0.815
0.02760135 0.16135356 0.81699997
0.02760135 0.16135356 0.81699997
0.02359749 0.1908526 0.84299999
0.02359749 0.1908526 0.84299999
0.02359749 0.19247688 0.84299999
0.02359749 0.19247688 0.84299999
0.025224904 0.19247688 0.84299999
0.025224904 0.19247688 0.84299999
0.030605214 0.16056359 0.81300002
0.030605214 0.16056359 0.81300002
0.025896719 0.1480318 0.81300002
0.025896719 0.1480318 0.81300002
0.027466217 0.14959827 0.81300002
0.027466217 0.14959827 0.81300002
0.033578187 0.17068498 0.80900002
0.033578187 0.17068498 0.80900002
0.033578187 0.17224374 0.80900002
0.033578187 0.17224374 0.80900002
0.033578187 0.17380251 0.80900002
0.033578187 0.17380251 0.80900002
0.023317568 0.15327843 0.833
0.023317568 0.15327843 0.833
0.023373552 0.15525529 0.83499998
0.023373552 0.15525529 0.83499998
0.023317568 0.15648843 0.833
0.023317568 0.15648843 0.833
0.021709459 0.15809345 0.833
0.021709459 0.15809345 0.833
0.021709459 0.15969846 0.833
0.021709459 0.15969846 0.833
0.020197878 0.17336705 0.83700001
0.020197878 0.17336705 0.83700001
0.021970076 0.18110694 0.84299999
0.021970076 0.18110694 0.84299999
0.021970076 0.18273121 0.84299999
0.021970076 0.18273121 0.84299999
0.021761583 0.14881985 0.83499998
0.021761583 0.14881985 0.83499998
0.021761583 0.15042871 0.83499998
0.021761583 0.15042871 0.83499998
0.020149613 0.15042871 0.83499998
0.020149613 0.15042871 0.83499998
0.020149613 0.15203756 0.83499998
0.020149613 0.15203756 0.83499998
0.018582046 0.15401445 0.83700001
0.018582046 0.15401445 0.83700001
0.020149613 0.15364642 0.83499998
0.020149613 0.15364642 0.83499998
0.018582046 0.15562718 0.83700001
0.018582046 0.15562718 0.83700001
0.020149613 0.15525529 0.83499998
0.020149613 0.15525529 0.83499998
0.018582046 0.15723988 0.83700001
0.018582046 0.15723988 0.83700001
0.018582046 0.15240173 0.83700001
0.018582046 0.15240173 0.83700001
0.035139963 0.17847881 0.80900002
0.035139963 0.17847881 0.80900002
0.033495173 0.18425722 0.80699998
0.033495173 0.18425722 0.80699998
0.018626448 0.15923217 0.83899999
0.018626448 0.15923217 0.83899999
0.035226833 0.18048266 0.81099999
0.035226833 0.18048266 0.81099999
0.035226833 0.18204528 0.81099999
0.035226833 0.18204528 0.81099999
0.033495173 0.18581213 0.80699998
0.033495173 0.18581213 0.80699998
