# .PCD v0.7 - Point Cloud Data file format
VERSION 0.7
FIELDS x y z
SIZE 4 4 4
TYPE F F F
COUNT 1 1 1
WIDTH 351
HEIGHT 1
VIEWPOINT 0 0 0 1 0 0 0
POINTS 351
DATA ascii
-0.0040299227 -0.044243738 0.83499998
-0.0040299227 -0.042634875 0.83499998
-0.0024179537 -0.042634875 0.83499998
-0.0040395753 -0.041124277 0.83700001
-0.0024179537 -0.041026011 0.83499998
-0.0057364865 -0.040078033 0.84899998
-0.0040395753 -0.039511561 0.83700001
-0.0024179537 -0.039417148 0.83499998
-0.0057364865 -0.038442194 0.84899998
-0.0040395753 -0.037898846 0.83700001
-0.0024179537 -0.037808284 0.83499998
-0.0073928572 -0.036893062 0.85100001
-0.0057364865 -0.036806356 0.84899998
-0.004068533 -0.036546241 0.84299999
-0.0024237451 -0.036286127 0.83700001
-0.0073928572 -0.035253372 0.85100001
-0.0057364865 -0.035170518 0.84899998
-0.004068533 -0.034921966 0.84299999
-0.0024353282 -0.034839116 0.84100002
-0.00080019305 -0.034342002 0.829
-0.0090675671 -0.033732176 0.85399997
-0.0073928572 -0.033613682 0.85100001
-0.0057364865 -0.03353468 0.84899998
-0.004068533 -0.033297688 0.84299999
-0.0024353282 -0.033218689 0.84100002
-0.00080019305 -0.032744702 0.829
-0.0090675671 -0.032086704 0.85399997
-0.0073928572 -0.031973988 0.85100001
-0.0057364865 -0.031898841 0.84899998
-0.004068533 -0.031673409 0.84299999
-0.0024353282 -0.031598266 0.84100002
-0.00080019305 -0.031147398 0.829
-0.0090888031 -0.030512525 0.85600001
-0.0073928572 -0.030334298 0.85100001
-0.005722973 -0.030191716 0.847
-0.0040781857 -0.030120425 0.84500003
-0.0024411196 -0.030049132 0.84299999
-0.00080791506 -0.029835261 0.83700001
-0.014292471 -0.029368978 0.87099999
-0.012582047 -0.029301543 0.86900002
-0.010879343 -0.029234104 0.86699998
-0.0090888031 -0.028863199 0.85600001
-0.0073928572 -0.028694605 0.85100001
-0.005722973 -0.028559729 0.847
-0.004068533 -0.028424855 0.84299999
-0.0024411196 -0.028424855 0.84299999
-0.00080791506 -0.028222544 0.83700001
0.00080019305 -0.027952794 0.829
-0.014259653 -0.027627168 0.86900002
-0.012553088 -0.027563583 0.86699998
-0.010841699 -0.027468208 0.86400002
-0.0090888031 -0.027213873 0.85600001
-0.0073928572 -0.027054913 0.85100001
-0.005722973 -0.026927745 0.847
-0.004068533 -0.026800578 0.84299999
-0.0024411196 -0.026800578 0.84299999
-0.00080984557 -0.02667341 0.83899999
-0.014259653 -0.025952794 0.86900002
-0.012553088 -0.025893062 0.86699998
-0.010841699 -0.025803469 0.86400002
-0.0091100382 -0.025624277 0.85799998
-0.0073928572 -0.025415221 0.85100001
-0.0057364865 -0.02535549 0.84899998
-0.0040781857 -0.025236031 0.84500003
-0.0024469113 -0.025236031 0.84500003
-0.00081177609 -0.02511657 0.84100002
-0.012582047 -0.024278421 0.86900002
-0.010841699 -0.024138728 0.86400002
-0.0091100382 -0.023971098 0.85799998
-0.0073928572 -0.023775531 0.85100001
-0.0057364865 -0.023719652 0.84899998
-0.0040878379 -0.023663776 0.847
-0.0024411196 -0.023552023 0.84299999
-0.00081370655 -0.023552023 0.84299999
-0.012582047 -0.022604046 0.86900002
-0.010879343 -0.022552023 0.86699998
-0.0091100382 -0.022317918 0.85799998
-0.0074189189 -0.022213873 0.85399997
-0.00575 -0.022135839 0.85100001
-0.0040878379 -0.022031792 0.847
-0.0024411196 -0.021927746 0.84299999
-0.00081177609 -0.021875722 0.84100002
-0.012611004 -0.020977842 0.87099999
-0.010841699 -0.02080925 0.86400002
-0.0091312742 -0.02071291 0.86000001
-0.0074362936 -0.02061657 0.85600001
-0.00575 -0.020496147 0.85100001
-0.0040878379 -0.020399807 0.847
-0.0024411196 -0.020303467 0.84299999
-0.00081177609 -0.020255299 0.84100002
0.00080598454 -0.02011079 0.83499998
-0.012611004 -0.019299615 0.87099999
-0.010841699 -0.019144509 0.86400002
-0.0091312742 -0.019055877 0.86000001
-0.0074362936 -0.018967245 0.85600001
-0.00575 -0.018856455 0.85100001
-0.0040974901 -0.018812139 0.84899998
-0.0024469113 -0.018723506 0.84500003
-0.00081563712 -0.018723506 0.84500003
0.00081177609 -0.018634874 0.84100002
0.0024353282 -0.018634874 0.84100002
-0.012509652 -0.01747977 0.86400002
-0.010841699 -0.01747977 0.86400002
-0.0091312742 -0.017398844 0.86000001
-0.0074362936 -0.017317919 0.85600001
-0.00575 -0.017216763 0.85100001
-0.0040974901 -0.0171763 0.84899998
-0.0024469113 -0.017095376 0.84500003
-0.00081563712 -0.017095376 0.84500003
0.00081177609 -0.017014451 0.84100002
0.0024353282 -0.017014451 0.84100002
-0.012509652 -0.015815029 0.86400002
-0.010841699 -0.015815029 0.86400002
-0.0091312742 -0.015741812 0.86000001
-0.0074362936 -0.015668593 0.85600001
-0.0057702702 -0.015631985 0.85399997
-0.0041071428 -0.015577071 0.85100001
-0.0024527027 -0.015503854 0.847
-0.00081563712 -0.015467245 0.84500003
0.00081177609 -0.015394027 0.84100002
0.0024353282 -0.015394027 0.84100002
-0.012741312 -0.014412331 0.88
-0.0092268344 -0.014232177 0.86900002
-0.0074536679 -0.014052023 0.85799998
-0.0057702702 -0.013986512 0.85399997
-0.0041216216 -0.013986512 0.85399997
-0.0024584942 -0.013904624 0.84899998
-0.00081563712 -0.013839114 0.84500003
0.00081177609 -0.013773603 0.84100002
0.0024237451 -0.013708092 0.83700001
-0.012712356 -0.012687862 0.87800002
-0.010954633 -0.012615607 0.87300003
-0.0092480695 -0.012586705 0.87099999
-0.0075492281 -0.012557804 0.86900002
-0.0057702702 -0.01234104 0.85399997
-0.0041216216 -0.01234104 0.85399997
-0.0024584942 -0.012268785 0.84899998
-0.00080984557 -0.012124278 0.83899999
0.00080791506 -0.012095376 0.83700001
0.0024121623 -0.012037572 0.833
0.0039913128 -0.011950867 0.82700002
-0.012712356 -0.010996147 0.87800002
-0.010954633 -0.010933527 0.87300003
-0.0092480695 -0.010908478 0.87099999
-0.0075492281 -0.01088343 0.86900002
-0.0058243242 -0.010795761 0.86199999
-0.0041216216 -0.010695568 0.85399997
-0.0024642858 -0.010657996 0.85100001
-0.00080984557 -0.010507707 0.83899999
0.00080598454 -0.010457611 0.83499998
0.0024121623 -0.010432563 0.833
0.004000965 -0.010382466 0.829
-0.0041505792 -0.0091136806 0.86000001
-0.0024845558 -0.0090924855 0.85799998
-0.00080984557 -0.0088911364 0.83899999
0.00080598454 -0.0088487472 0.83499998
0.0024121623 -0.0088275531 0.833
0.004000965 -0.008785164 0.829
-0.0024903475 -0.0074566477 0.86000001
-0.00083011587 -0.0074566477 0.86000001
0.00080598454 -0.0072398842 0.83499998
0.0024063706 -0.0072052022 0.83099997
0.004000965 -0.007187861 0.829
0.0024063706 -0.0056040459 0.83099997
0.004000965 -0.0055905585 0.829
0.00080598454 -0.0056310212 0.83499998
0.00080598454 -0.0056310212 0.83499998
-0.0024237451 -0.049187861 0.83700001
-0.0024237451 -0.049187861 0.83700001
-0.0040395753 -0.047575146 0.83700001
-0.0040395753 -0.047575146 0.83700001
-0.0024237451 -0.047575146 0.83700001
-0.0024237451 -0.047575146 0.83700001
-0.0057364865 -0.043349709 0.84899998
-0.0057364865 -0.043349709 0.84899998
-0.0057364865 -0.041713871 0.84899998
-0.0057364865 -0.041713871 0.84899998
-0.01097973 -0.014330443 0.875
-0.01097973 -0.014330443 0.875
-0.0092905406 -0.0092726396 0.875
-0.0092905406 -0.0092726396 0.875
0.00079440157 -0.02616474 0.82300001
0.00079440157 -0.02616474 0.82300001
0.0024063706 -0.0040028901 0.83099997
0.0024063706 -0.0040028901 0.83099997
0.004000965 -0.003993256 0.829
0.004000965 -0.003993256 0.829
0.0056013511 -0.003993256 0.829
0.0056013511 -0.003993256 0.829
0.0024063706 -0.002401734 0.83099997
0.0024063706 -0.002401734 0.83099997
0.004000965 -0.0023959538 0.829
0.004000965 -0.0023959538 0.829
0.0056013511 -0.0023959538 0.829
0.0056013511 -0.0023959538 0.829
-0.012611004 -0.05286416 0.87099999
-0.012611004 -0.05286416 0.87099999
-0.014292471 -0.051185936 0.87099999
-0.014292471 -0.051185936 0.87099999
-0.012611004 -0.051185936 0.87099999
-0.012611004 -0.051185936 0.87099999
-0.010929537 -0.051185936 0.87099999
-0.010929537 -0.051185936 0.87099999
-0.014292471 -0.049507707 0.87099999
-0.014292471 -0.049507707 0.87099999
-0.012582047 -0.049394026 0.86900002
-0.012582047 -0.049394026 0.86900002
-0.010904441 -0.049394026 0.86900002
-0.010904441 -0.049394026 0.86900002
-0.0075492281 -0.049394026 0.86900002
-0.0075492281 -0.049394026 0.86900002
-0.014292471 -0.047829479 0.87099999
-0.014292471 -0.047829479 0.87099999
-0.012582047 -0.047719654 0.86900002
-0.012582047 -0.047719654 0.86900002
-0.010904441 -0.047719654 0.86900002
-0.010904441 -0.047719654 0.86900002
-0.0092268344 -0.047719654 0.86900002
-0.0092268344 -0.047719654 0.86900002
-0.0075492281 -0.047719654 0.86900002
-0.0075492281 -0.047719654 0.86900002
-0.014292471 -0.046151251 0.87099999
-0.014292471 -0.046151251 0.87099999
-0.012582047 -0.046045281 0.86900002
-0.012582047 -0.046045281 0.86900002
-0.010904441 -0.046045281 0.86900002
-0.010904441 -0.046045281 0.86900002
-0.0092268344 -0.046045281 0.86900002
-0.0092268344 -0.046045281 0.86900002
-0.0075492281 -0.046045281 0.86900002
-0.0075492281 -0.046045281 0.86900002
-0.015973939 -0.044473026 0.87099999
-0.015973939 -0.044473026 0.87099999
-0.014259653 -0.044370908 0.86900002
-0.014259653 -0.044370908 0.86900002
-0.012553088 -0.044268787 0.86699998
-0.012553088 -0.044268787 0.86699998
-0.010879343 -0.044268787 0.86699998
-0.010879343 -0.044268787 0.86699998
-0.0092268344 -0.044370908 0.86900002
-0.0092268344 -0.044370908 0.86900002
-0.0075492281 -0.044370908 0.86900002
-0.0075492281 -0.044370908 0.86900002
-0.015937259 -0.042696532 0.86900002
-0.015937259 -0.042696532 0.86900002
-0.014226833 -0.042598266 0.86699998
-0.014226833 -0.042598266 0.86699998
-0.012553088 -0.042598266 0.86699998
-0.012553088 -0.042598266 0.86699998
-0.010816602 -0.042352602 0.86199999
-0.010816602 -0.042352602 0.86199999
-0.0091100382 -0.042156067 0.85799998
-0.0091100382 -0.042156067 0.85799998
-0.0074362936 -0.042057805 0.85600001
-0.0074362936 -0.042057805 0.85600001
-0.015937259 -0.041022159 0.86900002
-0.015937259 -0.041022159 0.86900002
-0.014226833 -0.040927745 0.86699998
-0.014226833 -0.040927745 0.86699998
-0.012553088 -0.040927745 0.86699998
-0.012553088 -0.040927745 0.86699998
-0.010816602 -0.040691715 0.86199999
-0.010816602 -0.040691715 0.86199999
-0.0091100382 -0.040502891 0.85799998
-0.0091100382 -0.040502891 0.85799998
-0.0074189189 -0.040314063 0.85399997
-0.0074189189 -0.040314063 0.85399997
-0.015937259 -0.039347786 0.86900002
-0.015937259 -0.039347786 0.86900002
-0.014226833 -0.039257225 0.86699998
-0.014226833 -0.039257225 0.86699998
-0.012509652 -0.039121389 0.86400002
-0.012509652 -0.039121389 0.86400002
-0.010816602 -0.039030828 0.86199999
-0.010816602 -0.039030828 0.86199999
-0.0091100382 -0.038849711 0.85799998
-0.0091100382 -0.038849711 0.85799998
-0.0074189189 -0.038668592 0.85399997
-0.0074189189 -0.038668592 0.85399997
-0.016010618 -0.037846822 0.87300003
-0.016010618 -0.037846822 0.87300003
-0.014259653 -0.03767341 0.86900002
-0.014259653 -0.03767341 0.86900002
-0.012509652 -0.037456647 0.86400002
-0.012509652 -0.037456647 0.86400002
-0.010816602 -0.03736994 0.86199999
-0.010816602 -0.03736994 0.86199999
-0.0091100382 -0.037196532 0.85799998
-0.0091100382 -0.037196532 0.85799998
-0.016010618 -0.036164742 0.87300003
-0.016010618 -0.036164742 0.87300003
-0.014259653 -0.035999037 0.86900002
-0.014259653 -0.035999037 0.86900002
-0.012553088 -0.035916183 0.86699998
-0.012553088 -0.035916183 0.86699998
-0.010841699 -0.035791907 0.86400002
-0.010841699 -0.035791907 0.86400002
-0.0091100382 -0.035543352 0.85799998
-0.0091100382 -0.035543352 0.85799998
-0.016010618 -0.034482662 0.87300003
-0.016010618 -0.034482662 0.87300003
-0.014259653 -0.034324665 0.86900002
-0.014259653 -0.034324665 0.86900002
-0.012553088 -0.034245662 0.86699998
-0.012553088 -0.034245662 0.86699998
-0.010841699 -0.034127168 0.86400002
-0.010841699 -0.034127168 0.86400002
-0.012553088 -0.032575145 0.86699998
-0.012553088 -0.032575145 0.86699998
-0.010879343 -0.032575145 0.86699998
-0.010879343 -0.032575145 0.86699998
-0.012553088 -0.030904625 0.86699998
-0.012553088 -0.030904625 0.86699998
-0.010879343 -0.030904625 0.86699998
-0.010879343 -0.030904625 0.86699998
0.0055878381 -0.0071705203 0.82700002
0.0055878381 -0.0071705203 0.82700002
0.0055878381 -0.0055770716 0.82700002
0.0055878381 -0.0055770716 0.82700002
-0.00080019305 -0.042328518 0.829
-0.00080019305 -0.042328518 0.829
-0.0007982626 -0.0390395 0.82700002
-0.0007982626 -0.0390395 0.82700002
-0.0007982626 -0.037446052 0.82700002
-0.0007982626 -0.037446052 0.82700002
-0.0007982626 -0.035852604 0.82700002
-0.0007982626 -0.035852604 0.82700002
0.0007982626 -0.034259152 0.82700002
0.0007982626 -0.034259152 0.82700002
0.0007982626 -0.029478807 0.82700002
0.0007982626 -0.029478807 0.82700002
0.00079633202 -0.035765894 0.82499999
0.00079633202 -0.035765894 0.82499999
0.00079633202 -0.032586705 0.82499999
0.00079633202 -0.032586705 0.82499999
0.0023889961 -0.032586705 0.82499999
0.0023889961 -0.032586705 0.82499999
0.00079633202 -0.030997109 0.82499999
0.00079633202 -0.030997109 0.82499999
0.0023889961 -0.030997109 0.82499999
0.0023889961 -0.030997109 0.82499999
0.0023889961 -0.029407514 0.82499999
0.0023889961 -0.029407514 0.82499999
-0.014407337 -0.012687862 0.87800002
-0.014407337 -0.012687862 0.87800002
-0.014407337 -0.010996147 0.87800002
-0.014407337 -0.010996147 0.87800002
-0.014440155 -0.0161079 0.88
-0.014440155 -0.0161079 0.88
-0.014440155 -0.014412331 0.88
-0.014440155 -0.014412331 0.88
