# .PCD v0.7 - Point Cloud Data file format
VERSION 0.7
FIELDS x y z
SIZE 4 4 4
TYPE F F F
COUNT 1 1 1
WIDTH 1537
HEIGHT 1
VIEWPOINT 0 0 0 1 0 0 0
POINTS 1537
DATA ascii
-0.25661293 -0.048199423 0.98100001
-0.25661293 -0.048199423 0.98100001
-0.2398832 -0.034469172 0.96700001
-0.2398832 -0.034469172 0.96700001
-0.24325 -0.04405684 0.97299999
-0.24325 -0.04405684 0.97299999
-0.24700676 -0.049681116 0.97299999
-0.24700676 -0.049681116 0.97299999
-0.24512838 -0.047806356 0.97299999
-0.24512838 -0.047806356 0.97299999
-0.23801641 -0.034469172 0.96700001
-0.23801641 -0.034469172 0.96700001
-0.23541698 -0.034362234 0.96399999
-0.23541698 -0.034362234 0.96399999
-0.24137162 -0.038432561 0.97299999
-0.24137162 -0.038432561 0.97299999
-0.23385811 -0.00093737955 0.97299999
-0.23385811 -0.00093737955 0.97299999
-0.24939673 -0.053540464 0.97500002
-0.24939673 -0.053540464 0.97500002
-0.23245656 0.0084537575 0.97500002
-0.23245656 0.0084537575 0.97500002
-0.23245656 0.01033237 0.97500002
-0.23245656 0.01033237 0.97500002
-0.23541698 -0.032504816 0.96399999
-0.23541698 -0.032504816 0.96399999
-0.23054923 -0.01211079 0.96700001
-0.23054923 -0.01211079 0.96700001
-0.23224227 -0.028401732 0.95099998
-0.23224227 -0.028401732 0.95099998
-0.23121428 -0.017608864 0.96200001
-0.23121428 -0.017608864 0.96200001
-0.26228476 -0.051237959 0.96700001
-0.26228476 -0.051237959 0.96700001
-0.22868243 -0.01211079 0.96700001
-0.22868243 -0.01211079 0.96700001
-0.24751449 -0.044147398 0.97500002
-0.24751449 -0.044147398 0.97500002
-0.24325 -0.040307321 0.97299999
-0.24325 -0.040307321 0.97299999
-0.23492858 -0.030583816 0.96200001
-0.23492858 -0.030583816 0.96200001
-0.22983398 -0.017645473 0.96399999
-0.22983398 -0.017645473 0.96399999
-0.23121428 -0.019462427 0.96200001
-0.23121428 -0.019462427 0.96200001
-0.23121428 -0.015755299 0.96200001
-0.23121428 -0.015755299 0.96200001
-0.24325 -0.04218208 0.97299999
-0.24325 -0.04218208 0.97299999
-0.22680984 0.0065751448 0.97500002
-0.22680984 0.0065751448 0.97500002
-0.23245656 0.0065751448 0.97500002
-0.23245656 0.0065751448 0.97500002
-0.23057432 0.0084537575 0.97500002
-0.23057432 0.0084537575 0.97500002
-0.23128378 0.010364162 0.97799999
-0.23128378 0.010364162 0.97799999
-0.26041797 -0.051237959 0.96700001
-0.26041797 -0.051237959 0.96700001
-0.24751449 -0.042268787 0.97500002
-0.24751449 -0.042268787 0.97500002
-0.23727798 -0.032504816 0.96399999
-0.23727798 -0.032504816 0.96399999
-0.24250001 -0.038314067 0.97000003
-0.24250001 -0.038314067 0.97000003
-0.24512838 -0.040307321 0.97299999
-0.24512838 -0.040307321 0.97299999
-0.23801641 -0.036332369 0.96700001
-0.23801641 -0.036332369 0.96700001
-0.25282529 -0.046309248 0.98100001
-0.25282529 -0.046309248 0.98100001
-0.23197973 0.0028121388 0.97299999
-0.23197973 0.0028121388 0.97299999
-0.23057432 0.0065751448 0.97500002
-0.23057432 0.0065751448 0.97500002
-0.25205213 -0.051820807 0.97799999
-0.25205213 -0.051820807 0.97799999
-0.22983398 -0.015788054 0.96399999
-0.22983398 -0.015788054 0.96399999
-0.22983398 -0.013930636 0.96399999
-0.22983398 -0.013930636 0.96399999
-0.25282529 -0.048199423 0.98100001
-0.25282529 -0.048199423 0.98100001
-0.25016409 -0.044283237 0.97799999
-0.25016409 -0.044283237 0.97799999
-0.22939575 0.01601734 0.97799999
-0.22939575 0.01601734 0.97799999
-0.24512838 -0.04218208 0.97299999
-0.24512838 -0.04218208 0.97299999
-0.2398832 -0.036332369 0.96700001
-0.2398832 -0.036332369 0.96700001
-0.23678572 -0.030583816 0.96200001
-0.23678572 -0.030583816 0.96200001
-0.24751449 -0.046026014 0.97500002
-0.24751449 -0.046026014 0.97500002
-0.24512838 -0.04405684 0.97299999
-0.24512838 -0.04405684 0.97299999
-0.22425096 -0.010215799 0.96399999
-0.22425096 -0.010215799 0.96399999
-0.21560618 0.040763006 0.98400003
-0.21560618 0.040763006 0.98400003
-0.23057432 0.0046965317 0.97500002
-0.23057432 0.0046965317 0.97500002
-0.24939673 -0.051661853 0.97500002
-0.24939673 -0.051661853 0.97500002
-0.22130503 0.03317919 0.98400003
-0.22130503 0.03317919 0.98400003
-0.25016409 -0.046167631 0.97799999
-0.25016409 -0.046167631 0.97799999
-0.25016409 -0.048052024 0.97799999
-0.25016409 -0.048052024 0.97799999
-0.21806757 0.03486127 0.97799999
-0.21806757 0.03486127 0.97799999
-0.21617953 0.040514451 0.97799999
-0.21617953 0.040514451 0.97799999
-0.23197973 0.0046868976 0.97299999
-0.23197973 0.0046868976 0.97299999
-0.21806757 0.040514451 0.97799999
-0.21806757 0.040514451 0.97799999
-0.21617953 0.038630057 0.97799999
-0.21617953 0.038630057 0.97799999
-0.22869208 0.0084537575 0.97500002
-0.22869208 0.0084537575 0.97500002
-0.24939673 -0.049783237 0.97500002
-0.24939673 -0.049783237 0.97500002
-0.218611 0.042875722 0.98900002
-0.218611 0.042875722 0.98900002
-0.21806757 0.038630057 0.97799999
-0.21806757 0.038630057 0.97799999
-0.21806757 0.036745664 0.97799999
-0.21806757 0.036745664 0.97799999
-0.22130503 0.035075147 0.98400003
-0.22130503 0.035075147 0.98400003
-0.012083012 -0.22255684 1.138
-0.0098861009 -0.22255684 1.138
-0.01204054 -0.21958959 1.1339999
-0.0098513504 -0.21958959 1.1339999
-0.0076621617 -0.21958959 1.1339999
-0.0054729725 -0.21958959 1.1339999
0.0010907336 -0.21881503 1.13
0.0032722007 -0.21881503 1.13
0.0054729725 -0.21958959 1.1339999
-0.033154443 -0.21242005 1.108
-0.031015445 -0.21242005 1.108
-0.01630309 -0.21587092 1.126
-0.014129344 -0.21587092 1.126
-0.011998069 -0.21663776 1.13
-0.0098513504 -0.21740462 1.1339999
-0.0076351352 -0.21663776 1.13
-0.0054343631 -0.21587092 1.126
-0.0032606178 -0.21587092 1.126
-0.0010868727 -0.21587092 1.126
0.0010907336 -0.21663776 1.13
0.0032722007 -0.21663776 1.13
0.0054343631 -0.21587092 1.126
0.0076081082 -0.21587092 1.126
0.0097818533 -0.21587092 1.126
0.011998069 -0.21663776 1.13
0.014179537 -0.21663776 1.13
-0.041597489 -0.2097158 1.105
-0.039321426 -0.20895664 1.101
-0.037195943 -0.20895664 1.101
-0.03507046 -0.20895664 1.101
-0.032944981 -0.20895664 1.101
-0.030819496 -0.20895664 1.101
-0.028694015 -0.20895664 1.101
-0.026833976 -0.21104431 1.112
-0.024753861 -0.21161368 1.115
-0.02059556 -0.21313199 1.123
-0.018427607 -0.21313199 1.123
-0.016259653 -0.21313199 1.123
-0.014091699 -0.21313199 1.123
-0.011923745 -0.21313199 1.123
-0.0097818533 -0.21370135 1.126
-0.0076081082 -0.21370135 1.126
-0.0054198843 -0.21313199 1.123
-0.0032519305 -0.21313199 1.123
-0.0010839768 -0.21313199 1.123
0.0010868727 -0.21370135 1.126
0.0032606178 -0.21370135 1.126
0.0054198843 -0.21313199 1.123
0.007587838 -0.21313199 1.123
0.0097818533 -0.21370135 1.126
0.011955599 -0.21370135 1.126
0.014129344 -0.21370135 1.126
0.016259653 -0.21313199 1.123
0.018427607 -0.21313199 1.123
0.02059556 -0.21313199 1.123
0.022763515 -0.21313199 1.123
-0.043572392 -0.20683526 1.101
-0.041446909 -0.20683526 1.101
-0.039321426 -0.20683526 1.101
-0.037195943 -0.20683526 1.101
-0.03507046 -0.20683526 1.101
-0.032944981 -0.20683526 1.101
-0.030819496 -0.20683526 1.101
-0.028694015 -0.20683526 1.101
-0.026737453 -0.2081503 1.108
-0.024687259 -0.20890173 1.112
-0.02254054 -0.20890173 1.112
-0.020393822 -0.20890173 1.112
-0.018296333 -0.20946532 1.115
-0.016201736 -0.21021676 1.119
-0.014091699 -0.21096821 1.123
-0.011923745 -0.21096821 1.123
-0.0097557921 -0.21096821 1.123
-0.007587838 -0.21096821 1.123
-0.0054198843 -0.21096821 1.123
-0.0032519305 -0.21096821 1.123
-0.0010839768 -0.21096821 1.123
0.0010801158 -0.21021676 1.119
0.0032403474 -0.21021676 1.119
0.005400579 -0.21021676 1.119
0.0075608105 -0.21021676 1.119
0.0097557921 -0.21096821 1.123
0.011923745 -0.21096821 1.123
0.014091699 -0.21096821 1.123
0.016259653 -0.21096821 1.123
0.018427607 -0.21096821 1.123
0.0205222 -0.21021676 1.119
0.022601351 -0.20946532 1.115
0.024753861 -0.20946532 1.115
-0.04734556 -0.20266859 1.09
-0.045241315 -0.20266859 1.09
-0.043295365 -0.20341232 1.094
-0.041446909 -0.20471387 1.101
-0.039178573 -0.20397013 1.097
-0.037060812 -0.20397013 1.097
-0.035197876 -0.20545761 1.105
-0.032944981 -0.20471387 1.101
-0.030819496 -0.20471387 1.101
-0.028694015 -0.20471387 1.101
-0.026737453 -0.20601542 1.108
-0.024598457 -0.20601542 1.108
-0.02245946 -0.20601542 1.108
-0.020320464 -0.20601542 1.108
-0.018296333 -0.20731696 1.115
-0.016143823 -0.20731696 1.115
-0.013991313 -0.20731696 1.115
-0.011838803 -0.20731696 1.115
-0.0096862931 -0.20731696 1.115
-0.0075608105 -0.20806068 1.119
-0.005400579 -0.20806068 1.119
-0.0032403474 -0.20806068 1.119
-0.0010801158 -0.20806068 1.119
0.0010762549 -0.20731696 1.115
0.0032287645 -0.20731696 1.115
0.005381274 -0.20731696 1.115
0.007533784 -0.20731696 1.115
0.0097210417 -0.20806068 1.119
0.011881273 -0.20806068 1.119
0.014041505 -0.20806068 1.119
0.016259653 -0.20880444 1.123
0.018361969 -0.20806068 1.119
0.0205222 -0.20806068 1.119
0.022601351 -0.20731696 1.115
0.024687259 -0.20675915 1.112
0.026833976 -0.20675915 1.112
0.028876448 -0.20601542 1.108
0.031015445 -0.20601542 1.108
-0.051554054 -0.20056841 1.09
-0.049449809 -0.20056841 1.09
-0.04734556 -0.20056841 1.09
-0.045241315 -0.20056841 1.09
-0.043295365 -0.20130442 1.094
-0.041183397 -0.20130442 1.094
-0.03907143 -0.20130442 1.094
-0.037060812 -0.20185645 1.097
-0.03507046 -0.20259248 1.101
-0.032944981 -0.20259248 1.101
-0.030819496 -0.20259248 1.101
-0.028694015 -0.20259248 1.101
-0.026568532 -0.20259248 1.101
-0.024531854 -0.20332852 1.105
-0.022398649 -0.20332852 1.105
-0.020265445 -0.20332852 1.105
-0.018181467 -0.20388055 1.108
-0.016100386 -0.20461656 1.112
-0.013953668 -0.20461656 1.112
-0.01180695 -0.20461656 1.112
-0.0096602319 -0.20461656 1.112
-0.0075135133 -0.20461656 1.112
-0.0053474903 -0.20388055 1.108
-0.0032084943 -0.20388055 1.108
-0.0010694981 -0.20388055 1.108
0.001073359 -0.20461656 1.112
0.0032200771 -0.20461656 1.112
0.0053667952 -0.20461656 1.112
0.0075135133 -0.20461656 1.112
0.0096862931 -0.20516859 1.115
0.011838803 -0.20516859 1.115
0.013991313 -0.20516859 1.115
0.016143823 -0.20516859 1.115
0.018361969 -0.20590462 1.119
0.020448841 -0.20516859 1.115
0.02254054 -0.20461656 1.112
0.024598457 -0.20388055 1.108
0.026737453 -0.20388055 1.108
0.028798264 -0.20332852 1.105
0.030819496 -0.20259248 1.101
0.032735519 -0.20130442 1.094
0.03484749 -0.20130442 1.094
-0.081013516 -0.19846821 1.09
-0.078692086 -0.19792196 1.087
-0.07659363 -0.19792196 1.087
-0.074495174 -0.19792196 1.087
-0.072396718 -0.19792196 1.087
-0.070104249 -0.19737571 1.084
-0.068011582 -0.19737571 1.084
-0.065918915 -0.19737571 1.084
-0.061904442 -0.19792196 1.087
-0.059805986 -0.19792196 1.087
-0.05770753 -0.19792196 1.087
-0.055609073 -0.19792196 1.087
-0.053658303 -0.19846821 1.09
-0.051554054 -0.19846821 1.09
-0.049449809 -0.19846821 1.09
-0.04734556 -0.19846821 1.09
-0.045241315 -0.19846821 1.09
-0.043137066 -0.19846821 1.09
-0.041183397 -0.19919653 1.094
-0.03907143 -0.19919653 1.094
-0.036959458 -0.19919653 1.094
-0.034943052 -0.19974278 1.097
-0.032825291 -0.19974278 1.097
-0.030707529 -0.19974278 1.097
-0.028589768 -0.19974278 1.097
-0.026472008 -0.19974278 1.097
-0.024443049 -0.20047109 1.101
-0.022317566 -0.20047109 1.101
-0.020192085 -0.20047109 1.101
-0.01813224 -0.20119943 1.105
-0.016042471 -0.20174567 1.108
-0.013903475 -0.20174567 1.108
-0.011764479 -0.20174567 1.108
-0.0096254833 -0.20174567 1.108
-0.0074662166 -0.20119943 1.105
-0.0053330115 -0.20119943 1.105
-0.0031998069 -0.20119943 1.105
-0.0010666023 -0.20119943 1.105
0.0010666023 -0.20119943 1.105
0.0031998069 -0.20119943 1.105
0.0053330115 -0.20119943 1.105
0.0074864868 -0.20174567 1.108
0.0096602319 -0.20247398 1.112
0.01180695 -0.20247398 1.112
0.013953668 -0.20247398 1.112
0.016100386 -0.20247398 1.112
0.018296333 -0.20302023 1.115
0.020393822 -0.20247398 1.112
0.02245946 -0.20174567 1.108
0.024531854 -0.20119943 1.105
0.026665058 -0.20119943 1.105
0.028694015 -0.20047109 1.101
0.030707529 -0.19974278 1.097
0.032735519 -0.19919653 1.094
0.03484749 -0.19919653 1.094
-0.080790542 -0.19582756 1.087
-0.078474902 -0.19528709 1.084
-0.076382242 -0.19528709 1.084
-0.074289575 -0.19528709 1.084
-0.072396718 -0.19582756 1.087
-0.070104249 -0.19528709 1.084
-0.068011582 -0.19528709 1.084
-0.065918915 -0.19528709 1.084
-0.064002894 -0.19582756 1.087
-0.061904442 -0.19582756 1.087
-0.059805986 -0.19582756 1.087
-0.05770753 -0.19582756 1.087
-0.055609073 -0.19582756 1.087
-0.053658303 -0.19636802 1.09
-0.051554054 -0.19636802 1.09
-0.049449809 -0.19636802 1.09
-0.04734556 -0.19636802 1.09
-0.045241315 -0.19636802 1.09
-0.043137066 -0.19636802 1.09
-0.041032821 -0.19636802 1.09
-0.038928572 -0.19636802 1.09
-0.036824327 -0.19636802 1.09
-0.03484749 -0.19708863 1.094
-0.032735519 -0.19708863 1.094
-0.030623551 -0.19708863 1.094
-0.028511582 -0.19708863 1.094
-0.026472008 -0.19762909 1.097
-0.024354247 -0.19762909 1.097
-0.022236487 -0.19762909 1.097
-0.020118726 -0.19762909 1.097
-0.018066602 -0.1983497 1.101
-0.015941119 -0.1983497 1.101
-0.01386583 -0.19907033 1.105
-0.011732626 -0.19907033 1.105
-0.0095994212 -0.19907033 1.105
-0.0074391887 -0.1983497 1.101
-0.0053137061 -0.1983497 1.101
-0.0031882238 -0.1983497 1.101
-0.0010627413 -0.1983497 1.101
0.0010627413 -0.1983497 1.101
0.003176641 -0.19762909 1.097
0.0052944017 -0.19762909 1.097
0.0074391887 -0.1983497 1.101
0.0095646717 -0.1983497 1.101
0.011690154 -0.1983497 1.101
0.01386583 -0.19907033 1.105
0.016042471 -0.1996108 1.108
0.018181467 -0.1996108 1.108
0.020265445 -0.19907033 1.105
0.022317566 -0.1983497 1.101
0.024354247 -0.19762909 1.097
0.026472008 -0.19762909 1.097
0.028589768 -0.19762909 1.097
0.030623551 -0.19708863 1.094
0.032735519 -0.19708863 1.094
0.03484749 -0.19708863 1.094
0.036959458 -0.19708863 1.094
0.03907143 -0.19708863 1.094
-0.082660228 -0.19319846 1.084
-0.080270275 -0.19248556 1.08
-0.078185335 -0.19248556 1.08
-0.076100387 -0.19248556 1.08
-0.074015446 -0.19248556 1.08
-0.072196908 -0.19319846 1.084
-0.069845565 -0.19248556 1.08
-0.067760624 -0.19248556 1.08
-0.06610135 -0.19373314 1.087
-0.063826256 -0.19319846 1.084
-0.061733589 -0.19319846 1.084
-0.059805986 -0.19373314 1.087
-0.05770753 -0.19373314 1.087
-0.055609073 -0.19373314 1.087
-0.053510617 -0.19373314 1.087
-0.051412161 -0.19373314 1.087
-0.049313705 -0.19373314 1.087
-0.04734556 -0.19426782 1.09
-0.045241315 -0.19426782 1.09
-0.043018341 -0.19373314 1.087
-0.040919885 -0.19373314 1.087
-0.038821429 -0.19373314 1.087
-0.036722973 -0.19373314 1.087
-0.034720078 -0.19426782 1.09
-0.032615829 -0.19426782 1.09
-0.030511584 -0.19426782 1.09
-0.028407337 -0.19426782 1.09
-0.02630309 -0.19426782 1.09
-0.024198843 -0.19426782 1.09
-0.022094596 -0.19426782 1.09
-0.019990347 -0.19426782 1.09
-0.017951736 -0.19498073 1.094
-0.015839769 -0.19498073 1.094
-0.013727799 -0.19498073 1.094
-0.01161583 -0.19498073 1.094
-0.009503861 -0.19498073 1.094
-0.0073918919 -0.19498073 1.094
-0.0052799229 -0.19498073 1.094
-0.003176641 -0.19551541 1.097
-0.0010588804 -0.19551541 1.097
0.0010559845 -0.19498073 1.094
0.0031679536 -0.19498073 1.094
0.0052799229 -0.19498073 1.094
0.0073918919 -0.19498073 1.094
0.009503861 -0.19498073 1.094
0.011647684 -0.19551541 1.097
0.013765444 -0.19551541 1.097
0.015839769 -0.19498073 1.094
0.017951736 -0.19498073 1.094
0.020063706 -0.19498073 1.094
0.022175675 -0.19498073 1.094
0.024354247 -0.19551541 1.097
0.026472008 -0.19551541 1.097
0.028589768 -0.19551541 1.097
0.030623551 -0.19498073 1.094
0.032735519 -0.19498073 1.094
0.03484749 -0.19498073 1.094
0.036959458 -0.19498073 1.094
0.03907143 -0.19498073 1.094
0.041032821 -0.19426782 1.09
0.043137066 -0.19426782 1.09
-0.088610046 -0.19040464 1.08
-0.086525097 -0.19040464 1.08
-0.084440157 -0.19040464 1.08
-0.082355216 -0.19040464 1.08
-0.080270275 -0.19040464 1.08
-0.07796815 -0.18987572 1.077
-0.075888999 -0.18987572 1.077
-0.073809847 -0.18987572 1.077
-0.071730696 -0.18987572 1.077
-0.069651544 -0.18987572 1.077
-0.067572393 -0.18987572 1.077
-0.065493241 -0.18987572 1.077
-0.063414097 -0.18987572 1.077
-0.061733589 -0.19110982 1.084
-0.059640925 -0.19110982 1.084
-0.05770753 -0.19163874 1.087
-0.055609073 -0.19163874 1.087
-0.053510617 -0.19163874 1.087
-0.051412161 -0.19163874 1.087
-0.049313705 -0.19163874 1.087
-0.047215253 -0.19163874 1.087
-0.045116797 -0.19163874 1.087
-0.042899612 -0.19110982 1.084
-0.040806949 -0.19110982 1.084
-0.038714286 -0.19110982 1.084
-0.036621623 -0.19110982 1.084
-0.034528956 -0.19110982 1.084
-0.032526061 -0.19163874 1.087
-0.030427607 -0.19163874 1.087
-0.028329151 -0.19163874 1.087
-0.026230695 -0.19163874 1.087
-0.024132241 -0.19163874 1.087
-0.022033785 -0.19163874 1.087
-0.019935329 -0.19163874 1.087
-0.0178861 -0.19216764 1.09
-0.015694981 -0.19110982 1.084
-0.013602316 -0.19110982 1.084
-0.011509652 -0.19110982 1.084
-0.0094430503 -0.19163874 1.087
-0.0073445947 -0.19163874 1.087
-0.0052461391 -0.19163874 1.087
-0.0031563707 -0.19216764 1.09
-0.0010521236 -0.19216764 1.09
0.0010521236 -0.19216764 1.09
0.0031563707 -0.19216764 1.09
0.0052606179 -0.19216764 1.09
0.0073648649 -0.19216764 1.09
0.0094691124 -0.19216764 1.09
0.011573359 -0.19216764 1.09
0.013677606 -0.19216764 1.09
0.015781853 -0.19216764 1.09
0.0178861 -0.19216764 1.09
0.019990347 -0.19216764 1.09
0.022094596 -0.19216764 1.09
0.024198843 -0.19216764 1.09
0.02630309 -0.19216764 1.09
0.028407337 -0.19216764 1.09
0.030511584 -0.19216764 1.09
0.032615829 -0.19216764 1.09
0.034720078 -0.19216764 1.09
0.036824327 -0.19216764 1.09
0.038928572 -0.19216764 1.09
0.041032821 -0.19216764 1.09
0.043137066 -0.19216764 1.09
0.045241315 -0.19216764 1.09
-0.088363901 -0.18780059 1.077
-0.086284749 -0.18780059 1.077
-0.084205598 -0.18780059 1.077
-0.082126446 -0.18780059 1.077
-0.080047302 -0.18780059 1.077
-0.07796815 -0.18780059 1.077
-0.075888999 -0.18780059 1.077
-0.073535711 -0.18710308 1.073
-0.071464285 -0.18710308 1.073
-0.069651544 -0.18780059 1.077
-0.067572393 -0.18780059 1.077
-0.065493241 -0.18780059 1.077
-0.063414097 -0.18780059 1.077
-0.061334942 -0.18780059 1.077
-0.05942085 -0.18832371 1.08
-0.057548262 -0.1890212 1.084
-0.055455599 -0.1890212 1.084
-0.053362936 -0.1890212 1.084
-0.051270269 -0.1890212 1.084
-0.048996139 -0.18832371 1.08
-0.046911199 -0.18832371 1.08
-0.044826258 -0.18832371 1.08
-0.042741314 -0.18832371 1.08
-0.040656373 -0.18832371 1.08
-0.038571429 -0.18832371 1.08
-0.036486488 -0.18832371 1.08
-0.034401547 -0.18832371 1.08
-0.032316603 -0.18832371 1.08
-0.030343629 -0.1890212 1.084
-0.028329151 -0.18954432 1.087
-0.026230695 -0.18954432 1.087
-0.024065636 -0.1890212 1.084
-0.021972973 -0.1890212 1.084
-0.019880308 -0.1890212 1.084
-0.017787645 -0.1890212 1.084
-0.015637066 -0.18832371 1.08
-0.013552124 -0.18832371 1.08
-0.011467182 -0.18832371 1.08
-0.0093822395 -0.18832371 1.08
-0.0072972975 -0.18832371 1.08
-0.0052123554 -0.18832371 1.08
-0.0031389962 -0.1890212 1.084
-0.0010463321 -0.1890212 1.084
0.0010463321 -0.1890212 1.084
0.0031389962 -0.1890212 1.084
0.0052316603 -0.1890212 1.084
0.0073445947 -0.18954432 1.087
0.0094430503 -0.18954432 1.087
0.011541506 -0.18954432 1.087
0.013639961 -0.18954432 1.087
0.015738416 -0.18954432 1.087
0.017836872 -0.18954432 1.087
0.019935329 -0.18954432 1.087
0.022033785 -0.18954432 1.087
0.024198843 -0.19006744 1.09
0.02630309 -0.19006744 1.09
0.028329151 -0.18954432 1.087
0.030427607 -0.18954432 1.087
0.032526061 -0.18954432 1.087
0.034624517 -0.18954432 1.087
0.036722973 -0.18954432 1.087
0.038821429 -0.18954432 1.087
0.040919885 -0.18954432 1.087
0.043018341 -0.18954432 1.087
0.045116797 -0.18954432 1.087
0.047215253 -0.18954432 1.087
-0.10782626 -0.18003468 1.044
-0.10581081 -0.18003468 1.044
-0.10379537 -0.18003468 1.044
-0.10100676 -0.1822765 1.057
-0.098966219 -0.1822765 1.057
-0.097200766 -0.18279383 1.0599999
-0.095154434 -0.18279383 1.0599999
-0.093371615 -0.18331116 1.063
-0.089855216 -0.18451831 1.0700001
-0.08778958 -0.18451831 1.0700001
-0.085964285 -0.18503563 1.073
-0.083892852 -0.18503563 1.073
-0.081821427 -0.18503563 1.073
-0.079749994 -0.18503563 1.073
-0.077678569 -0.18503563 1.073
-0.075607143 -0.18503563 1.073
-0.073535711 -0.18503563 1.073
-0.071464285 -0.18503563 1.073
-0.069392852 -0.18503563 1.073
-0.067321427 -0.18503563 1.073
-0.065249994 -0.18503563 1.073
-0.063178569 -0.18503563 1.073
-0.06110714 -0.18503563 1.073
-0.059255794 -0.18572544 1.077
-0.057176642 -0.18572544 1.077
-0.055097491 -0.18572544 1.077
-0.053018343 -0.18572544 1.077
-0.051081084 -0.18624279 1.08
-0.04886004 -0.18572544 1.077
-0.04660714 -0.18503563 1.073
-0.044535711 -0.18503563 1.073
-0.042464282 -0.18503563 1.073
-0.040392857 -0.18503563 1.073
-0.038464285 -0.18572544 1.077
-0.036385138 -0.18572544 1.077
-0.034305986 -0.18572544 1.077
-0.032226834 -0.18572544 1.077
-0.030231662 -0.18624279 1.08
-0.02814672 -0.18624279 1.08
-0.026061777 -0.18624279 1.08
-0.023976834 -0.18624279 1.08
-0.021891892 -0.18624279 1.08
-0.019806951 -0.18624279 1.08
-0.017722009 -0.18624279 1.08
-0.015637066 -0.18624279 1.08
-0.013552124 -0.18624279 1.08
-0.011467182 -0.18624279 1.08
-0.0093822395 -0.18624279 1.08
-0.0072972975 -0.18624279 1.08
-0.0052123554 -0.18624279 1.08
-0.0031274133 -0.18624279 1.08
-0.001042471 -0.18624279 1.08
0.001042471 -0.18624279 1.08
0.0031274133 -0.18624279 1.08
0.0052123554 -0.18624279 1.08
0.0072972975 -0.18624279 1.08
0.0094169881 -0.18693256 1.084
0.011509652 -0.18693256 1.084
0.013602316 -0.18693256 1.084
0.015694981 -0.18693256 1.084
0.017787645 -0.18693256 1.084
0.019880308 -0.18693256 1.084
0.022033785 -0.1874499 1.087
0.024132241 -0.1874499 1.087
0.026158301 -0.18693256 1.084
0.028250964 -0.18693256 1.084
0.030343629 -0.18693256 1.084
0.032436293 -0.18693256 1.084
0.034528956 -0.18693256 1.084
0.036621623 -0.18693256 1.084
0.038714286 -0.18693256 1.084
0.040806949 -0.18693256 1.084
0.042899612 -0.18693256 1.084
0.044992279 -0.18693256 1.084
0.047084942 -0.18693256 1.084
0.049177606 -0.18693256 1.084
0.051270269 -0.18693256 1.084
0.053362936 -0.18693256 1.084
-0.11387259 -0.17802313 1.044
-0.11185715 -0.17802313 1.044
-0.11015734 -0.17853469 1.0470001
-0.10782626 -0.17802313 1.044
-0.10581081 -0.17802313 1.044
-0.10379537 -0.17802313 1.044
-0.10236486 -0.17904623 1.05
-0.10100676 -0.18023989 1.057
-0.098966219 -0.18023989 1.057
-0.096925676 -0.18023989 1.057
-0.094885141 -0.18023989 1.057
-0.093108103 -0.18075143 1.0599999
-0.091319494 -0.181263 1.063
-0.089267373 -0.181263 1.063
-0.087215245 -0.181263 1.063
-0.085483596 -0.18194509 1.067
-0.083658308 -0.18245666 1.0700001
-0.081592672 -0.18245666 1.0700001
-0.079527028 -0.18245666 1.0700001
-0.077461392 -0.18245666 1.0700001
-0.075395755 -0.18245666 1.0700001
-0.07312452 -0.18194509 1.067
-0.071064673 -0.18194509 1.067
-0.069198847 -0.18245666 1.0700001
-0.067133211 -0.18245666 1.0700001
-0.065067574 -0.18245666 1.0700001
-0.063001931 -0.18245666 1.0700001
-0.060936298 -0.18245666 1.0700001
-0.058870658 -0.18245666 1.0700001
-0.056805022 -0.18245666 1.0700001
-0.054739386 -0.18245666 1.0700001
-0.052673746 -0.18245666 1.0700001
-0.05060811 -0.18245666 1.0700001
-0.048406374 -0.18194509 1.067
-0.046346527 -0.18194509 1.067
-0.044286679 -0.18194509 1.067
-0.042226836 -0.18194509 1.067
-0.040279925 -0.18245666 1.0700001
-0.038214289 -0.18245666 1.0700001
-0.036148649 -0.18245666 1.0700001
-0.03417857 -0.1829682 1.073
-0.032107141 -0.1829682 1.073
-0.030147685 -0.1836503 1.077
-0.028068533 -0.1836503 1.077
-0.025989383 -0.1836503 1.077
-0.023910232 -0.1836503 1.077
-0.021831082 -0.1836503 1.077
-0.019751931 -0.1836503 1.077
-0.017722009 -0.18416186 1.08
-0.015637066 -0.18416186 1.08
-0.013514479 -0.1836503 1.077
-0.011435328 -0.1836503 1.077
-0.0093561774 -0.1836503 1.077
-0.0072770272 -0.1836503 1.077
-0.0051978766 -0.1836503 1.077
-0.003118726 -0.1836503 1.077
-0.0010395753 -0.1836503 1.077
0.0010395753 -0.1836503 1.077
0.003118726 -0.1836503 1.077
0.0051978766 -0.1836503 1.077
0.0072770272 -0.1836503 1.077
0.0093822395 -0.18416186 1.08
0.011467182 -0.18416186 1.08
0.013514479 -0.1836503 1.077
0.015593629 -0.1836503 1.077
0.017722009 -0.18416186 1.08
0.019806951 -0.18416186 1.08
0.021891892 -0.18416186 1.08
0.023976834 -0.18416186 1.08
0.026061777 -0.18416186 1.08
0.02814672 -0.18416186 1.08
0.030231662 -0.18416186 1.08
0.032316603 -0.18416186 1.08
0.034401547 -0.18416186 1.08
0.036486488 -0.18416186 1.08
0.038571429 -0.18416186 1.08
0.040656373 -0.18416186 1.08
0.042741314 -0.18416186 1.08
0.044826258 -0.18416186 1.08
0.046911199 -0.18416186 1.08
0.048996139 -0.18416186 1.08
0.051081084 -0.18416186 1.08
0.053166024 -0.18416186 1.08
0.055250969 -0.18416186 1.08
0.057335909 -0.18416186 1.08
-0.11824229 -0.17651735 1.0470001
-0.11622105 -0.17651735 1.0470001
-0.11387259 -0.17601156 1.044
-0.11185715 -0.17601156 1.044
-0.1098417 -0.17601156 1.044
-0.1081361 -0.17651735 1.0470001
-0.10611487 -0.17651735 1.0470001
-0.10409363 -0.17651735 1.0470001
-0.10236486 -0.17702311 1.05
-0.10072008 -0.17769749 1.054
-0.098966219 -0.17820328 1.057
-0.096925676 -0.17820328 1.057
-0.094885141 -0.17820328 1.057
-0.093108103 -0.17870905 1.0599999
-0.091061771 -0.17870905 1.0599999
-0.089015439 -0.17870905 1.0599999
-0.087215245 -0.17921484 1.063
-0.084922776 -0.17870905 1.0599999
-0.082876444 -0.17870905 1.0599999
-0.080830112 -0.17870905 1.0599999
-0.079006754 -0.17921484 1.063
-0.076954633 -0.17921484 1.063
-0.075184368 -0.17988922 1.067
-0.072850384 -0.17921484 1.063
-0.070798263 -0.17921484 1.063
-0.068746135 -0.17921484 1.063
-0.066944979 -0.17988922 1.067
-0.064885139 -0.17988922 1.067
-0.062825292 -0.17988922 1.067
-0.060765445 -0.17988922 1.067
-0.058705602 -0.17988922 1.067
-0.056805022 -0.18039499 1.0700001
-0.054585908 -0.17988922 1.067
-0.052526064 -0.17988922 1.067
-0.050277025 -0.17921484 1.063
-0.048224904 -0.17921484 1.063
-0.046172779 -0.17921484 1.063
-0.044120654 -0.17921484 1.063
-0.04206853 -0.17921484 1.063
-0.040166989 -0.17988922 1.067
-0.038107146 -0.17988922 1.067
-0.036047298 -0.17988922 1.067
-0.034083012 -0.18039499 1.0700001
-0.032017376 -0.18039499 1.0700001
-0.030035714 -0.18090077 1.073
-0.027964285 -0.18090077 1.073
-0.025892856 -0.18090077 1.073
-0.023821428 -0.18090077 1.073
-0.021749999 -0.18090077 1.073
-0.01967857 -0.18090077 1.073
-0.017672781 -0.18157515 1.077
-0.015593629 -0.18157515 1.077
-0.013514479 -0.18157515 1.077
-0.011392857 -0.18090077 1.073
-0.0093214279 -0.18090077 1.073
-0.0072499998 -0.18090077 1.073
-0.0051640929 -0.18039499 1.0700001
-0.0030984557 -0.18039499 1.0700001
-0.0010328186 -0.18039499 1.0700001
0.0010328186 -0.18039499 1.0700001
0.0030984557 -0.18039499 1.0700001
0.0051640929 -0.18039499 1.0700001
0.0072499998 -0.18090077 1.073
0.0093214279 -0.18090077 1.073
0.011392857 -0.18090077 1.073
0.013464285 -0.18090077 1.073
0.015535713 -0.18090077 1.073
0.017607141 -0.18090077 1.073
0.01967857 -0.18090077 1.073
0.021831082 -0.18157515 1.077
0.023910232 -0.18157515 1.077
0.025989383 -0.18157515 1.077
0.028068533 -0.18157515 1.077
0.030147685 -0.18157515 1.077
0.032226834 -0.18157515 1.077
0.034305986 -0.18157515 1.077
0.036385138 -0.18157515 1.077
0.038464285 -0.18157515 1.077
0.040543437 -0.18157515 1.077
0.042622589 -0.18157515 1.077
0.044826258 -0.18208094 1.08
0.046911199 -0.18208094 1.08
0.048996139 -0.18208094 1.08
0.050939191 -0.18157515 1.077
0.053018343 -0.18157515 1.077
0.055097491 -0.18157515 1.077
0.056964282 -0.18090077 1.073
0.059035711 -0.18090077 1.073
0.06110714 -0.18090077 1.073
-0.12668918 -0.175 1.05
-0.12466215 -0.175 1.05
-0.12263513 -0.175 1.05
-0.12060811 -0.175 1.05
-0.11824229 -0.1745 1.0470001
-0.11622105 -0.1745 1.0470001
-0.11387259 -0.17400001 1.044
-0.11185715 -0.17400001 1.044
-0.1098417 -0.17400001 1.044
-0.1081361 -0.1745 1.0470001
-0.10611487 -0.1745 1.0470001
-0.10409363 -0.1745 1.0470001
-0.10236486 -0.175 1.05
-0.10072008 -0.17566667 1.054
-0.098685332 -0.17566667 1.054
-0.096650578 -0.17566667 1.054
-0.094615832 -0.17566667 1.054
-0.092844598 -0.17616667 1.057
-0.090804055 -0.17616667 1.057
-0.08876352 -0.17616667 1.057
-0.086722977 -0.17616667 1.057
-0.084682435 -0.17616667 1.057
-0.082641892 -0.17616667 1.057
-0.080601357 -0.17616667 1.057
-0.078560814 -0.17616667 1.057
-0.076520272 -0.17616667 1.057
-0.074479729 -0.17616667 1.057
-0.072439194 -0.17616667 1.057
-0.070398651 -0.17616667 1.057
-0.068358108 -0.17616667 1.057
-0.066694014 -0.17716666 1.063
-0.064641893 -0.17716666 1.063
-0.062589765 -0.17716666 1.063
-0.060537644 -0.17716666 1.063
-0.058485519 -0.17716666 1.063
-0.056433395 -0.17716666 1.063
-0.054381274 -0.17716666 1.063
-0.052329149 -0.17716666 1.063
-0.050277025 -0.17716666 1.063
-0.048224904 -0.17716666 1.063
-0.046172779 -0.17716666 1.063
-0.044120654 -0.17716666 1.063
-0.04206853 -0.17716666 1.063
-0.040016409 -0.17716666 1.063
-0.037964284 -0.17716666 1.063
-0.03591216 -0.17716666 1.063
-0.033987451 -0.17783333 1.067
-0.032017376 -0.17833334 1.0700001
-0.029951738 -0.17833334 1.0700001
-0.027807916 -0.17783333 1.067
-0.02574807 -0.17783333 1.067
-0.023754828 -0.17833334 1.0700001
-0.02168919 -0.17833334 1.0700001
-0.019623553 -0.17833334 1.0700001
-0.017607141 -0.17883332 1.073
-0.015535713 -0.17883332 1.073
-0.013464285 -0.17883332 1.073
-0.011392857 -0.17883332 1.073
-0.0092953676 -0.17833334 1.0700001
-0.00722973 -0.17833334 1.0700001
-0.0051496141 -0.17783333 1.067
-0.0030897683 -0.17783333 1.067
-0.0010299229 -0.17783333 1.067
0.0010299229 -0.17783333 1.067
0.0030897683 -0.17783333 1.067
0.0051496141 -0.17783333 1.067
0.0072094598 -0.17783333 1.067
0.0092693055 -0.17783333 1.067
0.011361005 -0.17833334 1.0700001
0.013388997 -0.17783333 1.067
0.015448842 -0.17783333 1.067
0.017508687 -0.17783333 1.067
0.019568533 -0.17783333 1.067
0.02162838 -0.17783333 1.067
0.023754828 -0.17833334 1.0700001
0.025820464 -0.17833334 1.0700001
0.027886102 -0.17833334 1.0700001
0.030035714 -0.17883332 1.073
0.032107141 -0.17883332 1.073
0.03417857 -0.17883332 1.073
0.036249999 -0.17883332 1.073
0.038321428 -0.17883332 1.073
0.040392857 -0.17883332 1.073
0.042464282 -0.17883332 1.073
0.044535711 -0.17883332 1.073
0.046780888 -0.1795 1.077
0.04886004 -0.1795 1.077
0.050939191 -0.1795 1.077
0.053018343 -0.1795 1.077
0.054892857 -0.17883332 1.073
0.056964282 -0.17883332 1.073
0.059035711 -0.17883332 1.073
0.060936298 -0.17833334 1.0700001
0.063001931 -0.17833334 1.0700001
0.065067574 -0.17833334 1.0700001
0.067133211 -0.17833334 1.0700001
0.069392852 -0.17883332 1.073
-0.13926834 -0.171 1.038
-0.13726448 -0.171 1.038
-0.13526061 -0.171 1.038
-0.13325675 -0.171 1.038
-0.13201159 -0.17198844 1.044
-0.13036969 -0.17248267 1.0470001
-0.12871622 -0.17297687 1.05
-0.12668918 -0.17297687 1.05
-0.12466215 -0.17297687 1.05
-0.12263513 -0.17297687 1.05
-0.12060811 -0.17297687 1.05
-0.11824229 -0.17248267 1.0470001
-0.11622105 -0.17248267 1.0470001
-0.11387259 -0.17198844 1.044
-0.11185715 -0.17198844 1.044
-0.1098417 -0.17198844 1.044
-0.10782626 -0.17198844 1.044
-0.10581081 -0.17198844 1.044
-0.10379537 -0.17198844 1.044
-0.10236486 -0.17297687 1.05
-0.10033783 -0.17297687 1.05
-0.098310806 -0.17297687 1.05
-0.096283779 -0.17297687 1.05
-0.094256751 -0.17297687 1.05
-0.092229724 -0.17297687 1.05
-0.090202697 -0.17297687 1.05
-0.088175669 -0.17297687 1.05
-0.086148642 -0.17297687 1.05
-0.084442087 -0.17363584 1.054
-0.082094587 -0.17297687 1.05
-0.080067568 -0.17297687 1.05
-0.07804054 -0.17297687 1.05
-0.076013513 -0.17297687 1.05
-0.074268341 -0.17363584 1.054
-0.072233595 -0.17363584 1.054
-0.070198841 -0.17363584 1.054
-0.068164095 -0.17363584 1.054
-0.066129342 -0.17363584 1.054
-0.064094596 -0.17363584 1.054
-0.062236488 -0.17413007 1.057
-0.060366791 -0.17462426 1.0599999
-0.058320459 -0.17462426 1.0599999
-0.056274127 -0.17462426 1.0599999
-0.054227795 -0.17462426 1.0599999
-0.052181464 -0.17462426 1.0599999
-0.050135132 -0.17462426 1.0599999
-0.0480888 -0.17462426 1.0599999
-0.046042468 -0.17462426 1.0599999
-0.043996137 -0.17462426 1.0599999
-0.041949805 -0.17462426 1.0599999
-0.039903473 -0.17462426 1.0599999
-0.037857141 -0.17462426 1.0599999
-0.03581081 -0.17462426 1.0599999
-0.033764478 -0.17462426 1.0599999
-0.031807914 -0.17511849 1.063
-0.02975579 -0.17511849 1.063
-0.027703667 -0.17511849 1.063
-0.025651544 -0.17511849 1.063
-0.02359942 -0.17511849 1.063
-0.02162838 -0.17577747 1.067
-0.019568533 -0.17577747 1.067
-0.017508687 -0.17577747 1.067
-0.015448842 -0.17577747 1.067
-0.013426642 -0.17627169 1.0700001
-0.011361005 -0.17627169 1.0700001
-0.0092693055 -0.17577747 1.067
-0.0072094598 -0.17577747 1.067
-0.0051496141 -0.17577747 1.067
-0.0030897683 -0.17577747 1.067
-0.0010299229 -0.17577747 1.067
0.0010260617 -0.17511849 1.063
0.0030781853 -0.17511849 1.063
0.0051303087 -0.17511849 1.063
0.0071824323 -0.17511849 1.063
0.009234556 -0.17511849 1.063
0.011286679 -0.17511849 1.063
0.013338802 -0.17511849 1.063
0.015448842 -0.17577747 1.067
0.017508687 -0.17577747 1.067
0.019568533 -0.17577747 1.067
0.02162838 -0.17577747 1.067
0.023688225 -0.17577747 1.067
0.02574807 -0.17577747 1.067
0.027807916 -0.17577747 1.067
0.029867761 -0.17577747 1.067
0.031927608 -0.17577747 1.067
0.033987451 -0.17577747 1.067
0.036148649 -0.17627169 1.0700001
0.038214289 -0.17627169 1.0700001
0.040279925 -0.17627169 1.0700001
0.042345561 -0.17627169 1.0700001
0.044411197 -0.17627169 1.0700001
0.046476837 -0.17627169 1.0700001
0.048542473 -0.17627169 1.0700001
0.050749999 -0.17676589 1.073
0.052821428 -0.17676589 1.073
0.054739386 -0.17627169 1.0700001
0.056805022 -0.17627169 1.0700001
0.058870658 -0.17627169 1.0700001
0.060765445 -0.17577747 1.067
0.062825292 -0.17577747 1.067
0.064885139 -0.17577747 1.067
0.066944979 -0.17577747 1.067
0.069004826 -0.17577747 1.067
-0.1412722 -0.169 1.038
-0.13926834 -0.169 1.038
-0.13726448 -0.169 1.038
-0.13526061 -0.169 1.038
-0.13325675 -0.169 1.038
-0.13163224 -0.16948844 1.041
-0.12962259 -0.16948844 1.041
-0.12834845 -0.17046532 1.0470001
-0.12632723 -0.17046532 1.0470001
-0.12430599 -0.17046532 1.0470001
-0.12228476 -0.17046532 1.0470001
-0.12026352 -0.17046532 1.0470001
-0.11790348 -0.16997689 1.044
-0.11588804 -0.16997689 1.044
-0.11354537 -0.16948844 1.041
-0.11153571 -0.16948844 1.041
-0.10952606 -0.16948844 1.041
-0.10751641 -0.16948844 1.041
-0.10550676 -0.16948844 1.041
-0.10379537 -0.16997689 1.044
-0.1020724 -0.17046532 1.0470001
-0.10005116 -0.17046532 1.0470001
-0.098029926 -0.17046532 1.0470001
-0.096008688 -0.17046532 1.0470001
-0.093987457 -0.17046532 1.0470001
-0.091966219 -0.17046532 1.0470001
-0.089944988 -0.17046532 1.0470001
-0.087671816 -0.16997689 1.044
-0.085656375 -0.16997689 1.044
-0.083881281 -0.17046532 1.0470001
-0.081860043 -0.17046532 1.0470001
-0.079838805 -0.17046532 1.0470001
-0.077817574 -0.17046532 1.0470001
-0.075796336 -0.17046532 1.0470001
-0.073986486 -0.17095375 1.05
-0.071753867 -0.17046532 1.0470001
-0.069732629 -0.17046532 1.0470001
-0.067905404 -0.17095375 1.05
-0.065878376 -0.17095375 1.05
-0.063851349 -0.17095375 1.05
-0.061647687 -0.17046532 1.0470001
-0.059626449 -0.17046532 1.0470001
-0.057605214 -0.17046532 1.0470001
-0.05558398 -0.17046532 1.0470001
-0.053562745 -0.17046532 1.0470001
-0.052033786 -0.17209345 1.057
-0.04985135 -0.17160501 1.054
-0.047816604 -0.17160501 1.054
-0.045912165 -0.17209345 1.057
-0.043871623 -0.17209345 1.057
-0.041831084 -0.17209345 1.057
-0.039790541 -0.17209345 1.057
-0.037642859 -0.17160501 1.054
-0.035608109 -0.17160501 1.054
-0.033573359 -0.17160501 1.054
-0.031628381 -0.17209345 1.057
-0.029587839 -0.17209345 1.057
-0.027547298 -0.17209345 1.057
-0.025506757 -0.17209345 1.057
-0.023466216 -0.17209345 1.057
-0.021425676 -0.17209345 1.057
-0.019495172 -0.17307033 1.063
-0.01744305 -0.17307033 1.063
-0.015390926 -0.17307033 1.063
-0.013338802 -0.17307033 1.063
-0.011286679 -0.17307033 1.063
-0.009234556 -0.17307033 1.063
-0.0071824323 -0.17307033 1.063
-0.0051303087 -0.17307033 1.063
-0.0030781853 -0.17307033 1.063
-0.001023166 -0.17258188 1.0599999
0.001023166 -0.17258188 1.0599999
0.0030694979 -0.17258188 1.0599999
0.0051158299 -0.17258188 1.0599999
0.0071621616 -0.17258188 1.0599999
0.0092084939 -0.17258188 1.0599999
0.011254826 -0.17258188 1.0599999
0.013338802 -0.17307033 1.063
0.015390926 -0.17307033 1.063
0.01744305 -0.17307033 1.063
0.019440154 -0.17258188 1.0599999
0.021486485 -0.17258188 1.0599999
0.023532817 -0.17258188 1.0599999
0.025651544 -0.17307033 1.063
0.027703667 -0.17307033 1.063
0.02975579 -0.17307033 1.063
0.031807914 -0.17307033 1.063
0.033860039 -0.17307033 1.063
0.03591216 -0.17307033 1.063
0.037964284 -0.17307033 1.063
0.040016409 -0.17307033 1.063
0.04206853 -0.17307033 1.063
0.044120654 -0.17307033 1.063
0.046172779 -0.17307033 1.063
0.048406374 -0.17372158 1.067
0.050466217 -0.17372158 1.067
0.052526064 -0.17372158 1.067
0.054585908 -0.17372158 1.067
0.056645755 -0.17372158 1.067
0.058705602 -0.17372158 1.067
0.060765445 -0.17372158 1.067
0.062825292 -0.17372158 1.067
0.064885139 -0.17372158 1.067
0.066944979 -0.17372158 1.067
0.069004826 -0.17372158 1.067
0.071064673 -0.17372158 1.067
-0.14472008 -0.16635646 1.034
-0.14272395 -0.16635646 1.034
-0.1407278 -0.16635646 1.034
-0.13873166 -0.16635646 1.034
-0.13673553 -0.16635646 1.034
-0.13473938 -0.16635646 1.034
-0.13274325 -0.16635646 1.034
-0.1312529 -0.167 1.038
-0.12962259 -0.16748266 1.041
-0.12798069 -0.16796532 1.044
-0.12596525 -0.16796532 1.044
-0.12394981 -0.16796532 1.044
-0.12228476 -0.16844799 1.0470001
-0.12026352 -0.16844799 1.0470001
-0.11756467 -0.16748266 1.041
-0.11555502 -0.16748266 1.041
-0.11354537 -0.16748266 1.041
-0.11121429 -0.167 1.038
-0.10921042 -0.167 1.038
-0.1052027 -0.167 1.038
-0.1034971 -0.16748266 1.041
-0.10177992 -0.16796532 1.044
-0.099764481 -0.16796532 1.044
-0.09774904 -0.16796532 1.044
-0.09573359 -0.16796532 1.044
-0.09344884 -0.16748266 1.041
-0.091439188 -0.16748266 1.041
-0.089429535 -0.16748266 1.041
-0.087419882 -0.16748266 1.041
-0.08541023 -0.16748266 1.041
-0.083400577 -0.16748266 1.041
-0.081625484 -0.16796532 1.044
-0.079610042 -0.16796532 1.044
-0.077594593 -0.16796532 1.044
-0.075579152 -0.16796532 1.044
-0.073775098 -0.16844799 1.0470001
-0.071753867 -0.16844799 1.0470001
-0.069732629 -0.16844799 1.0470001
-0.067711391 -0.16844799 1.0470001
-0.065501936 -0.16796532 1.044
-0.063486487 -0.16796532 1.044
-0.061471045 -0.16796532 1.044
-0.0594556 -0.16796532 1.044
-0.057440154 -0.16796532 1.044
-0.055424713 -0.16796532 1.044
-0.053409267 -0.16796532 1.044
-0.051393826 -0.16796532 1.044
-0.04937838 -0.16796532 1.044
-0.047362935 -0.16796532 1.044
-0.045608107 -0.16893063 1.05
-0.04358108 -0.16893063 1.05
-0.041554052 -0.16893063 1.05
-0.039527025 -0.16893063 1.05
-0.037392858 -0.16844799 1.0470001
-0.035371624 -0.16844799 1.0470001
-0.033350389 -0.16844799 1.0470001
-0.031329151 -0.16844799 1.0470001
-0.02939189 -0.16893063 1.05
-0.027364863 -0.16893063 1.05
-0.025337836 -0.16893063 1.05
-0.02331081 -0.16893063 1.05
-0.021364866 -0.16957419 1.054
-0.019440154 -0.17053948 1.0599999
-0.017393822 -0.17053948 1.0599999
-0.015347489 -0.17053948 1.0599999
-0.013301157 -0.17053948 1.0599999
-0.011254826 -0.17053948 1.0599999
-0.0092084939 -0.17053948 1.0599999
-0.0071621616 -0.17053948 1.0599999
-0.0051158299 -0.17053948 1.0599999
-0.0030694979 -0.17053948 1.0599999
-0.0010202703 -0.17005685 1.057
0.0010202703 -0.17005685 1.057
0.003060811 -0.17005685 1.057
0.0051013515 -0.17005685 1.057
0.0071418923 -0.17005685 1.057
0.0091824327 -0.17005685 1.057
0.011222973 -0.17005685 1.057
0.013301157 -0.17053948 1.0599999
0.015347489 -0.17053948 1.0599999
0.017344596 -0.17005685 1.057
0.019385137 -0.17005685 1.057
0.021425676 -0.17005685 1.057
0.023466216 -0.17005685 1.057
0.025506757 -0.17005685 1.057
0.027547298 -0.17005685 1.057
0.029587839 -0.17005685 1.057
0.031628381 -0.17005685 1.057
0.03366892 -0.17005685 1.057
0.035709459 -0.17005685 1.057
0.037750002 -0.17005685 1.057
0.039790541 -0.17005685 1.057
0.041831084 -0.17005685 1.057
0.043871623 -0.17005685 1.057
0.045912165 -0.17005685 1.057
0.047952704 -0.17005685 1.057
0.050135132 -0.17053948 1.0599999
0.052329149 -0.17102215 1.063
0.054381274 -0.17102215 1.063
0.056433395 -0.17102215 1.063
0.058485519 -0.17102215 1.063
0.060537644 -0.17102215 1.063
0.062589765 -0.17102215 1.063
0.064641893 -0.17102215 1.063
0.066694014 -0.17102215 1.063
0.069004826 -0.17166571 1.067
-0.14629054 -0.16388729 1.031
-0.14430019 -0.16388729 1.031
-0.14230984 -0.16388729 1.031
-0.1403195 -0.16388729 1.031
-0.13873166 -0.16436417 1.034
-0.13673553 -0.16436417 1.034
-0.13473938 -0.16436417 1.034
-0.13274325 -0.16436417 1.034
-0.1312529 -0.16499999 1.038
-0.12924904 -0.16499999 1.038
-0.12761293 -0.16547687 1.041
-0.12560329 -0.16547687 1.041
-0.12394981 -0.16595376 1.044
-0.12193437 -0.16595376 1.044
-0.11991892 -0.16595376 1.044
-0.11756467 -0.16547687 1.041
-0.11522201 -0.16499999 1.038
-0.11321814 -0.16499999 1.038
-0.11121429 -0.16499999 1.038
-0.10679344 -0.16436417 1.034
-0.1047973 -0.16436417 1.034
-0.10280116 -0.16436417 1.034
-0.10119498 -0.16499999 1.038
-0.099191122 -0.16499999 1.038
-0.097187258 -0.16499999 1.038
-0.095183395 -0.16499999 1.038
-0.093179539 -0.16499999 1.038
-0.091175675 -0.16499999 1.038
-0.089171812 -0.16499999 1.038
-0.087167956 -0.16499999 1.038
-0.085164092 -0.16499999 1.038
-0.083160229 -0.16499999 1.038
-0.081156373 -0.16499999 1.038
-0.079381272 -0.16547687 1.041
-0.07737162 -0.16547687 1.041
-0.075361967 -0.16547687 1.041
-0.073352315 -0.16547687 1.041
-0.071342662 -0.16547687 1.041
-0.069333009 -0.16547687 1.041
-0.067323357 -0.16547687 1.041
-0.065313704 -0.16547687 1.041
-0.063304052 -0.16547687 1.041
-0.061117761 -0.16499999 1.038
-0.059113897 -0.16499999 1.038
-0.057275098 -0.16547687 1.041
-0.055265445 -0.16547687 1.041
-0.053255793 -0.16547687 1.041
-0.05124614 -0.16547687 1.041
-0.049236488 -0.16547687 1.041
-0.047226835 -0.16547687 1.041
-0.045217182 -0.16547687 1.041
-0.04320753 -0.16547687 1.041
-0.041197877 -0.16547687 1.041
-0.039188225 -0.16547687 1.041
-0.037285715 -0.16595376 1.044
-0.03527027 -0.16595376 1.044
-0.033254828 -0.16595376 1.044
-0.031239383 -0.16595376 1.044
-0.029223939 -0.16595376 1.044
-0.02728668 -0.16643064 1.0470001
-0.025265446 -0.16643064 1.0470001
-0.02324421 -0.16643064 1.0470001
-0.021222973 -0.16643064 1.0470001
-0.019330116 -0.16754335 1.054
-0.017295368 -0.16754335 1.054
-0.015260618 -0.16754335 1.054
-0.013225869 -0.16754335 1.054
-0.011191119 -0.16754335 1.054
-0.0091563705 -0.16754335 1.054
-0.0071216216 -0.16754335 1.054
-0.0050868727 -0.16754335 1.054
-0.0030521236 -0.16754335 1.054
-0.0010173746 -0.16754335 1.054
0.0010135134 -0.1669075 1.05
0.0030405405 -0.1669075 1.05
0.0050868727 -0.16754335 1.054
0.0071216216 -0.16754335 1.054
0.0091563705 -0.16754335 1.054
0.011191119 -0.16754335 1.054
0.013225869 -0.16754335 1.054
0.015304055 -0.16802023 1.057
0.017295368 -0.16754335 1.054
0.019330116 -0.16754335 1.054
0.021364866 -0.16754335 1.054
0.023399614 -0.16754335 1.054
0.025434364 -0.16754335 1.054
0.027469112 -0.16754335 1.054
0.029503861 -0.16754335 1.054
0.031538609 -0.16754335 1.054
0.033573359 -0.16754335 1.054
0.035608109 -0.16754335 1.054
0.037642859 -0.16754335 1.054
0.039677609 -0.16754335 1.054
0.041712355 -0.16754335 1.054
0.043747105 -0.16754335 1.054
0.045781855 -0.16754335 1.054
0.047816604 -0.16754335 1.054
0.049993247 -0.16802023 1.057
0.052033786 -0.16802023 1.057
0.054074325 -0.16802023 1.057
0.056114867 -0.16802023 1.057
0.058320459 -0.1684971 1.0599999
0.060366791 -0.1684971 1.0599999
0.062589765 -0.16897398 1.063
0.064641893 -0.16897398 1.063
-0.16573745 -0.15954529 1.016
-0.16329247 -0.15907419 1.013
-0.16085908 -0.15860309 1.01
-0.15890926 -0.15860309 1.01
-0.15742567 -0.15907419 1.013
-0.15639094 -0.16001639 1.0190001
-0.14939672 -0.16095857 1.025
-0.14741795 -0.16095857 1.025
-0.14629054 -0.16190077 1.031
-0.14430019 -0.16190077 1.031
-0.14230984 -0.16190077 1.031
-0.1403195 -0.16190077 1.031
-0.13832915 -0.16190077 1.031
-0.1363388 -0.16190077 1.031
-0.13434845 -0.16190077 1.031
-0.1323581 -0.16190077 1.031
-0.13036776 -0.16190077 1.031
-0.12875096 -0.16237187 1.034
-0.12724517 -0.163 1.038
-0.12524131 -0.163 1.038
-0.12359363 -0.1634711 1.041
-0.12193437 -0.1639422 1.044
-0.11991892 -0.1639422 1.044
-0.11722587 -0.163 1.038
-0.11522201 -0.163 1.038
-0.11278186 -0.16237187 1.034
-0.11078572 -0.16237187 1.034
-0.10878958 -0.16237187 1.034
-0.10648359 -0.16190077 1.031
-0.10449325 -0.16190077 1.031
-0.1025029 -0.16190077 1.031
-0.10051255 -0.16190077 1.031
-0.098808885 -0.16237187 1.034
-0.096812747 -0.16237187 1.034
-0.094816603 -0.16237187 1.034
-0.092820466 -0.16237187 1.034
-0.090824328 -0.16237187 1.034
-0.088828191 -0.16237187 1.034
-0.086832047 -0.16237187 1.034
-0.084835909 -0.16237187 1.034
-0.082839772 -0.16237187 1.034
-0.081156373 -0.163 1.038
-0.07915251 -0.163 1.038
-0.077148646 -0.163 1.038
-0.07514479 -0.163 1.038
-0.073140927 -0.163 1.038
-0.071137063 -0.163 1.038
-0.069133207 -0.163 1.038
-0.067129344 -0.163 1.038
-0.064874522 -0.16237187 1.034
-0.062878378 -0.16237187 1.034
-0.060882241 -0.16237187 1.034
-0.058886103 -0.16237187 1.034
-0.057110038 -0.163 1.038
-0.055106178 -0.163 1.038
-0.053102314 -0.163 1.038
-0.051098455 -0.163 1.038
-0.049094595 -0.163 1.038
-0.047090732 -0.163 1.038
-0.045086872 -0.163 1.038
-0.043083012 -0.163 1.038
-0.041079149 -0.163 1.038
-0.039075289 -0.163 1.038
-0.037071429 -0.163 1.038
-0.035067566 -0.163 1.038
-0.033063706 -0.163 1.038
-0.031149615 -0.1634711 1.041
-0.029139962 -0.1634711 1.041
-0.027130309 -0.1634711 1.041
-0.025193051 -0.1639422 1.044
-0.023111004 -0.1634711 1.041
-0.021101352 -0.1634711 1.041
-0.019201739 -0.1644133 1.0470001
-0.017180502 -0.1644133 1.0470001
-0.015159267 -0.1644133 1.0470001
-0.013138032 -0.1644133 1.0470001
-0.011116796 -0.1644133 1.0470001
-0.0090955598 -0.1644133 1.0470001
-0.0070945942 -0.16488439 1.05
-0.0050675673 -0.16488439 1.05
-0.0030405405 -0.16488439 1.05
-0.0010135134 -0.16488439 1.05
0.0010135134 -0.16488439 1.05
0.0030405405 -0.16488439 1.05
0.0050675673 -0.16488439 1.05
0.0070945942 -0.16488439 1.05
0.009121621 -0.16488439 1.05
0.011148648 -0.16488439 1.05
0.013175675 -0.16488439 1.05
0.015202702 -0.16488439 1.05
0.017229728 -0.16488439 1.05
0.019256756 -0.16488439 1.05
0.021283783 -0.16488439 1.05
0.02331081 -0.16488439 1.05
0.025337836 -0.16488439 1.05
0.02728668 -0.1644133 1.0470001
0.029307917 -0.1644133 1.0470001
0.031418916 -0.16488439 1.05
0.033445943 -0.16488439 1.05
0.03547297 -0.16488439 1.05
0.037642859 -0.16551253 1.054
0.039677609 -0.16551253 1.054
0.041712355 -0.16551253 1.054
0.043747105 -0.16551253 1.054
0.054074325 -0.16598363 1.057
0.056114867 -0.16598363 1.057
0.058320459 -0.16645472 1.0599999
-0.16966024 -0.15758768 1.016
-0.16769885 -0.15758768 1.016
-0.16524807 -0.15712236 1.013
-0.16329247 -0.15712236 1.013
-0.16085908 -0.15665703 1.01
-0.15890926 -0.15665703 1.01
-0.15742567 -0.15712236 1.013
-0.15547007 -0.15712236 1.013
-0.15351447 -0.15712236 1.013
-0.15200773 -0.15758768 1.016
-0.15048939 -0.158053 1.0190001
-0.14852221 -0.158053 1.0190001
-0.14698648 -0.1585183 1.022
-0.14586486 -0.15944894 1.028
-0.14388031 -0.15944894 1.028
-0.14189576 -0.15944894 1.028
-0.1403195 -0.15991426 1.031
-0.13832915 -0.15991426 1.031
-0.13594209 -0.15944894 1.028
-0.13395754 -0.15944894 1.028
-0.13197297 -0.15944894 1.028
-0.12998842 -0.15944894 1.028
-0.12800387 -0.15944894 1.028
-0.1260193 -0.15944894 1.028
-0.12403475 -0.15944894 1.028
-0.12169401 -0.15898362 1.025
-0.11971525 -0.15898362 1.025
-0.11842567 -0.15991426 1.031
-0.11643533 -0.15991426 1.031
-0.11411197 -0.15944894 1.028
-0.11212742 -0.15944894 1.028
-0.11014286 -0.15944894 1.028
-0.1081583 -0.15944894 1.028
-0.10617375 -0.15944894 1.028
-0.10418919 -0.15944894 1.028
-0.10220464 -0.15944894 1.028
-0.10022008 -0.15944894 1.028
-0.098235518 -0.15944894 1.028
-0.096250966 -0.15944894 1.028
-0.094541505 -0.15991426 1.031
-0.092551157 -0.15991426 1.031
-0.090560809 -0.15991426 1.031
-0.088570468 -0.15991426 1.031
-0.08658012 -0.15991426 1.031
-0.084589772 -0.15991426 1.031
-0.082599424 -0.15991426 1.031
-0.080609076 -0.15991426 1.031
-0.07884749 -0.16037959 1.034
-0.076851353 -0.16037959 1.034
-0.074855216 -0.16037959 1.034
-0.072859079 -0.16037959 1.034
-0.070862934 -0.16037959 1.034
