# .PCD v0.7 - Point Cloud Data file format
VERSION 0.7
FIELDS x y z
SIZE 4 4 4
TYPE F F F
COUNT 1 1 1
WIDTH 281
HEIGHT 1
VIEWPOINT 0 0 0 1 0 0 0
POINTS 281
DATA ascii
-0.069839768 0.18063392 0.778
-0.068513513 0.18109825 0.77999997
-0.075847492 0.18213294 0.778
-0.074345559 0.18213294 0.778
-0.073030889 0.18260115 0.77999997
-0.071525097 0.18260115 0.77999997
-0.077150583 0.18315993 0.77600002
-0.073499039 0.18528421 0.78500003
-0.072625481 0.18693641 0.792
-0.077647686 0.1858449 0.78100002
-0.076529928 0.18679672 0.78500003
-0.075014479 0.18679672 0.78500003
-0.073499039 0.18679672 0.78500003
-0.072808884 0.18893835 0.79400003
-0.079836875 0.18543063 0.773
-0.078445941 0.18567052 0.77399999
-0.078045368 0.18830925 0.78500003
-0.076529928 0.18830925 0.78500003
-0.075014479 0.18830925 0.78500003
-0.073499039 0.18830925 0.78500003
-0.085583977 0.18643643 0.77100003
-0.08409556 0.18643643 0.77100003
-0.082607143 0.18643643 0.77100003
-0.081329152 0.18692003 0.773
-0.079836875 0.18692003 0.773
-0.078344598 0.18692003 0.773
-0.086846523 0.18743449 0.76899999
-0.085583977 0.18792197 0.77100003
-0.084313706 0.18840945 0.773
-0.08335714 0.18962812 0.778
-0.081855215 0.18962812 0.778
-0.080353282 0.18962812 0.778
-0.089465246 0.18817918 0.76599997
-0.088101357 0.18842486 0.76700002
-0.087072395 0.18940753 0.77100003
-0.085805982 0.18989885 0.773
-0.085186295 0.19186416 0.78100002
-0.083678573 0.19186416 0.78100002
-0.082170852 0.19186416 0.78100002
-0.081282817 0.19333816 0.787
-0.090944014 0.1896551 0.76599997
-0.089815639 0.19039787 0.76899999
-0.088560812 0.19089307 0.77100003
-0.087298259 0.19138825 0.773
-0.086583011 0.19312137 0.77999997
-0.085622586 0.19435935 0.78500003
-0.084107146 0.19435935 0.78500003
-0.082802124 0.19485453 0.787
-0.081282817 0.19485453 0.787
-0.093267374 0.19287765 0.773
-0.091775097 0.19287765 0.773
-0.09028282 0.19287765 0.773
-0.088790543 0.19287765 0.773
-0.087298259 0.19287765 0.773
-0.087360039 0.1963709 0.787
-0.085840732 0.1963709 0.787
-0.084321432 0.1963709 0.787
-0.082802124 0.1963709 0.787
-0.081282817 0.1963709 0.787
-0.095504828 0.19285838 0.76700002
-0.094024137 0.19285838 0.76700002
-0.093267374 0.19436705 0.773
-0.091893822 0.19461849 0.77399999
-0.090399615 0.19461849 0.77399999
-0.088905402 0.19461849 0.77399999
-0.088879347 0.19788729 0.787
-0.087360039 0.19788729 0.787
-0.085840732 0.19788729 0.787
-0.084535711 0.19839017 0.78899997
-0.083012544 0.19839017 0.78899997
-0.081489377 0.19839017 0.78899997
-0.098466218 0.19433624 0.76700002
-0.097238414 0.19484296 0.76899999
-0.095753863 0.19484296 0.76899999
-0.094269305 0.19484296 0.76899999
-0.093267374 0.19585645 0.773
-0.091893822 0.19610982 0.77399999
-0.090399615 0.19610982 0.77399999
-0.086604252 0.20117727 0.79400003
-0.08507143 0.20117727 0.79400003
-0.083538614 0.20117727 0.79400003
-0.099946916 0.19581407 0.76700002
-0.098466218 0.19581407 0.76700002
-0.097491316 0.19683526 0.77100003
-0.096002899 0.19683526 0.77100003
-0.094514482 0.19683526 0.77100003
-0.093388028 0.19760115 0.77399999
-0.091893822 0.19760115 0.77399999
-0.10277413 0.19703467 0.76599997
-0.10129537 0.19703467 0.76599997
-0.10020753 0.19780636 0.76899999
-0.098722972 0.19780636 0.76899999
-0.097491316 0.19832082 0.77100003
-0.096002899 0.19832082 0.77100003
-0.094514482 0.19832082 0.77100003
-0.093026064 0.19832082 0.77100003
-0.10344499 0.19980636 0.77100003
-0.10195657 0.19980636 0.77100003
-0.10020753 0.19928806 0.76899999
-0.098722972 0.19928806 0.76899999
-0.097491316 0.19980636 0.77100003
-0.096002899 0.19980636 0.77100003
-0.1052056 0.20181407 0.773
-0.10371332 0.20181407 0.773
-0.10195657 0.20129192 0.77100003
-0.10046815 0.20129192 0.77100003
-0.098979734 0.20129192 0.77100003
-0.097491316 0.20129192 0.77100003
-0.10669788 0.20330347 0.773
-0.1052056 0.20330347 0.773
-0.10371332 0.20330347 0.773
-0.10222104 0.20330347 0.773
-0.10046815 0.20277746 0.77100003
-0.098979734 0.20277746 0.77100003
-0.097491316 0.20277746 0.77100003
-0.10939866 0.20426302 0.77100003
-0.10819016 0.20479287 0.773
-0.10683591 0.2050578 0.77399999
-0.1052056 0.20479287 0.773
-0.10371332 0.20479287 0.773
-0.10222104 0.20479287 0.773
-0.10072877 0.20479287 0.773
-0.11117471 0.20628227 0.773
-0.10968243 0.20628227 0.773
-0.10819016 0.20628227 0.773
-0.10683591 0.20654912 0.77399999
-0.1053417 0.20654912 0.77399999
-0.10411584 0.20708285 0.77600002
-0.10235328 0.20654912 0.77399999
-0.10085907 0.20654912 0.77399999
-0.11283012 0.2053526 0.764
-0.11208398 0.20669653 0.76899999
-0.11117471 0.20777167 0.773
-0.10968243 0.20777167 0.773
-0.10819016 0.20777167 0.773
-0.10683591 0.20804046 0.77399999
-0.1056139 0.20857804 0.77600002
-0.10411584 0.20857804 0.77600002
-0.11312548 0.20736608 0.76599997
-0.11208398 0.20817822 0.76899999
-0.11117471 0.20926107 0.773
-0.10968243 0.20926107 0.773
-0.10819016 0.20926107 0.773
-0.10683591 0.20953178 0.77399999
-0.1053417 0.20953178 0.77399999
-0.11430502 0.20829673 0.764
-0.11356853 0.20965992 0.76899999
-0.11237549 0.21020521 0.77100003
-0.11117471 0.21075048 0.773
-0.10968243 0.21075048 0.773
-0.10819016 0.21075048 0.773
-0.10683591 0.21102312 0.77399999
-0.1053417 0.21102312 0.77399999
-0.11532529 0.20894508 0.76099998
-0.11460424 0.21031791 0.76599997
-0.11356853 0.21114162 0.76899999
-0.11237549 0.21169075 0.77100003
-0.11117471 0.21223989 0.773
-0.10968243 0.21223989 0.773
-0.10819016 0.21223989 0.773
-0.10683591 0.21251445 0.77399999
-0.1053417 0.21251445 0.77399999
-0.11623456 0.21207033 0.76700002
-0.11475386 0.21207033 0.76700002
-0.11327317 0.21207033 0.76700002
-0.11179247 0.21207033 0.76700002
-0.11117471 0.21372929 0.773
-0.10968243 0.21372929 0.773
-0.10819016 0.21372929 0.773
-0.11832915 0.21466185 0.77100003
-0.11623456 0.21354817 0.76700002
-0.11475386 0.21354817 0.76700002
-0.11327317 0.21354817 0.76700002
-0.11179247 0.21354817 0.76700002
-0.1232722 0.21698843 0.77399999
-0.12177799 0.21698843 0.77399999
-0.12028378 0.21698843 0.77399999
-0.11832915 0.21614741 0.77100003
-0.11684074 0.21614741 0.77100003
-0.10797973 0.20014739 0.76099998
-0.10797973 0.20014739 0.76099998
-0.10651062 0.20014739 0.76099998
-0.10651062 0.20014739 0.76099998
-0.1091612 0.20108381 0.759
-0.1091612 0.20108381 0.759
-0.11091795 0.20307995 0.76099998
-0.11091795 0.20307995 0.76099998
-0.11863127 0.20557033 0.75400001
-0.11863127 0.20557033 0.75400001
-0.11717568 0.20557033 0.75400001
-0.11717568 0.20557033 0.75400001
-0.11441603 0.20584297 0.755
-0.11441603 0.20584297 0.755
-0.12008687 0.20702313 0.75400001
-0.12008687 0.20702313 0.75400001
-0.11863127 0.20702313 0.75400001
-0.11863127 0.20702313 0.75400001
-0.11733108 0.20729768 0.755
-0.11733108 0.20729768 0.755
-0.11587355 0.20729768 0.755
-0.11587355 0.20729768 0.755
-0.12122007 0.20792292 0.75199997
-0.12122007 0.20792292 0.75199997
-0.12024613 0.20875241 0.755
-0.12024613 0.20875241 0.755
-0.11878861 0.20875241 0.755
-0.11878861 0.20875241 0.755
-0.1176419 0.20930541 0.75700003
-0.1176419 0.20930541 0.75700003
-0.11648745 0.20985839 0.759
-0.11648745 0.20985839 0.759
-0.12412355 0.20937186 0.75199997
-0.12412355 0.20937186 0.75199997
-0.12299807 0.20992871 0.75400001
-0.12299807 0.20992871 0.75400001
-0.12154247 0.20992871 0.75400001
-0.12154247 0.20992871 0.75400001
-0.12024613 0.21020713 0.755
-0.12024613 0.21020713 0.755
-0.11910329 0.21076398 0.75700003
-0.11910329 0.21076398 0.75700003
-0.1176419 0.21076398 0.75700003
-0.1176419 0.21076398 0.75700003
-0.12882046 0.21138151 0.75400001
-0.12882046 0.21138151 0.75400001
-0.12736486 0.21138151 0.75400001
-0.12736486 0.21138151 0.75400001
-0.12590927 0.21138151 0.75400001
-0.12590927 0.21138151 0.75400001
-0.12445367 0.21138151 0.75400001
-0.12445367 0.21138151 0.75400001
-0.12299807 0.21138151 0.75400001
-0.12299807 0.21138151 0.75400001
-0.12154247 0.21138151 0.75400001
-0.12154247 0.21138151 0.75400001
-0.13027607 0.2128343 0.75400001
-0.13027607 0.2128343 0.75400001
-0.12882046 0.2128343 0.75400001
-0.12882046 0.2128343 0.75400001
-0.12736486 0.2128343 0.75400001
-0.12736486 0.2128343 0.75400001
-0.12590927 0.2128343 0.75400001
-0.12590927 0.2128343 0.75400001
-0.12445367 0.2128343 0.75400001
-0.12445367 0.2128343 0.75400001
-0.12299807 0.2128343 0.75400001
-0.12299807 0.2128343 0.75400001
-0.12154247 0.2128343 0.75400001
-0.12154247 0.2128343 0.75400001
-0.12899131 0.21457128 0.755
-0.12899131 0.21457128 0.755
-0.12753378 0.21457128 0.755
-0.12753378 0.21457128 0.755
-0.12607625 0.21457128 0.755
-0.12607625 0.21457128 0.755
-0.12461872 0.21457128 0.755
-0.12461872 0.21457128 0.755
-0.12348746 0.2151397 0.75700003
-0.12348746 0.2151397 0.75700003
-0.12753378 0.21602601 0.755
-0.12753378 0.21602601 0.755
-0.12607625 0.21602601 0.755
-0.12607625 0.21602601 0.755
-0.12461872 0.21602601 0.755
-0.12461872 0.21602601 0.755
-0.09660618 0.19210404 0.764
-0.09660618 0.19210404 0.764
-0.10438417 0.21061464 0.778
-0.10438417 0.21061464 0.778
-0.079836875 0.18394123 0.773
-0.079836875 0.18394123 0.773
-0.076139964 0.18434007 0.78100002
-0.076139964 0.18434007 0.78100002
-0.074632242 0.18434007 0.78100002
-0.074632242 0.18434007 0.78100002
-0.078445941 0.18417919 0.77399999
-0.078445941 0.18417919 0.77399999
-0.070109077 0.18283527 0.78100002
-0.070109077 0.18283527 0.78100002
-0.078445941 0.18268786 0.77399999
-0.078445941 0.18268786 0.77399999
