# .PCD v0.7 - Point Cloud Data file format
VERSION 0.7
FIELDS x y z
SIZE 4 4 4
TYPE F F F
COUNT 1 1 1
WIDTH 1351
HEIGHT 1
VIEWPOINT 0 0 0 1 0 0 0
POINTS 1351
DATA ascii
-0.080053091 -0.046257228 0.87300003
-0.078367762 -0.046257228 0.87300003
-0.076858111 -0.046363197 0.875
-0.075168923 -0.046363197 0.875
-0.073731661 -0.046522159 0.87800002
-0.072036684 -0.046522159 0.87800002
-0.070341699 -0.046522159 0.87800002
-0.068646722 -0.046522159 0.87800002
-0.066951737 -0.046522159 0.87800002
-0.065405406 -0.046628132 0.88
-0.063706562 -0.046628132 0.88
-0.062007722 -0.046628132 0.88
-0.060308881 -0.046628132 0.88
-0.058743246 -0.046734106 0.88200003
-0.057234555 -0.046893064 0.88499999
-0.055526063 -0.046893064 0.88499999
-0.053635135 -0.046734106 0.88200003
-0.051932435 -0.046734106 0.88200003
-0.050115831 -0.046628132 0.88
-0.048416987 -0.046628132 0.88
-0.046718147 -0.046628132 0.88
-0.045019306 -0.046628132 0.88
-0.043418922 -0.046734106 0.88200003
-0.041716218 -0.046734106 0.88200003
-0.040149614 -0.046893064 0.88499999
-0.038441118 -0.046893064 0.88499999
-0.03681564 -0.046999037 0.88700002
-0.035103284 -0.046999037 0.88700002
-0.16224903 -0.044013485 0.86199999
-0.16058494 -0.044013485 0.86199999
-0.15892085 -0.044013485 0.86199999
-0.15725675 -0.044013485 0.86199999
-0.15595368 -0.044115607 0.86400002
-0.15428571 -0.044115607 0.86400002
-0.15261777 -0.044115607 0.86400002
-0.15094981 -0.044115607 0.86400002
-0.14928186 -0.044115607 0.86400002
-0.1476139 -0.044115607 0.86400002
-0.14594595 -0.044115607 0.86400002
-0.14427799 -0.044115607 0.86400002
-0.14261004 -0.044115607 0.86400002
-0.14094208 -0.044115607 0.86400002
-0.13895173 -0.044013485 0.86199999
-0.13728765 -0.044013485 0.86199999
-0.13593823 -0.044115607 0.86400002
-0.13427028 -0.044115607 0.86400002
-0.13306274 -0.044268787 0.86699998
-0.13138899 -0.044268787 0.86699998
-0.12971525 -0.044268787 0.86699998
-0.12759846 -0.044115607 0.86400002
-0.1259305 -0.044115607 0.86400002
-0.12426255 -0.044115607 0.86400002
-0.12259459 -0.044115607 0.86400002
-0.12134653 -0.044268787 0.86699998
-0.11967278 -0.044268787 0.86699998
-0.11799903 -0.044268787 0.86699998
-0.11632529 -0.044268787 0.86699998
-0.11491603 -0.044370908 0.86900002
-0.11323842 -0.044370908 0.86900002
-0.11156081 -0.044370908 0.86900002
-0.1098832 -0.044370908 0.86900002
-0.1082056 -0.044370908 0.86900002
-0.10652799 -0.044370908 0.86900002
-0.10485039 -0.044370908 0.86900002
-0.10317278 -0.044370908 0.86900002
-0.10149518 -0.044370908 0.86900002
-0.099817567 -0.044370908 0.86900002
-0.098139964 -0.044370908 0.86900002
-0.096462354 -0.044370908 0.86900002
-0.095002897 -0.044473026 0.87099999
-0.093321428 -0.044473026 0.87099999
-0.091639958 -0.044473026 0.87099999
-0.089958496 -0.044473026 0.87099999
-0.088277027 -0.044473026 0.87099999
-0.086794406 -0.044575147 0.87300003
-0.085109077 -0.044575147 0.87300003
-0.083423749 -0.044575147 0.87300003
-0.08173842 -0.044575147 0.87300003
-0.080053091 -0.044575147 0.87300003
-0.078367762 -0.044575147 0.87300003
-0.076682433 -0.044575147 0.87300003
-0.074997105 -0.044575147 0.87300003
-0.073311776 -0.044575147 0.87300003
-0.071790539 -0.044677265 0.875
-0.070101351 -0.044677265 0.875
-0.068412162 -0.044677265 0.875
-0.066951737 -0.044830445 0.87800002
-0.06525676 -0.044830445 0.87800002
-0.063561775 -0.044830445 0.87800002
-0.061866798 -0.044830445 0.87800002
-0.060171816 -0.044830445 0.87800002
-0.058476835 -0.044830445 0.87800002
-0.056781854 -0.044830445 0.87800002
-0.055086873 -0.044830445 0.87800002
-0.053391892 -0.044830445 0.87800002
-0.051696911 -0.044830445 0.87800002
-0.05000193 -0.044830445 0.87800002
-0.048306949 -0.044830445 0.87800002
-0.044916991 -0.044830445 0.87800002
-0.043320462 -0.044932563 0.88
-0.16021235 -0.042254336 0.86000001
-0.15855213 -0.042254336 0.86000001
-0.15523167 -0.042254336 0.86000001
-0.15357143 -0.042254336 0.86000001
-0.1519112 -0.042254336 0.86000001
-0.15060039 -0.042352602 0.86199999
-0.14893629 -0.042352602 0.86199999
-0.1472722 -0.042352602 0.86199999
-0.14560811 -0.042352602 0.86199999
-0.14394401 -0.042352602 0.86199999
-0.1419498 -0.042254336 0.86000001
-0.14028957 -0.042254336 0.86000001
-0.13862935 -0.042254336 0.86000001
-0.13696912 -0.042254336 0.86000001
-0.13530888 -0.042254336 0.86000001
-0.13364865 -0.042254336 0.86000001
-0.13198842 -0.042254336 0.86000001
-0.13032819 -0.042254336 0.86000001
-0.12866795 -0.042254336 0.86000001
-0.12730309 -0.042352602 0.86199999
-0.12563899 -0.042352602 0.86199999
-0.1239749 -0.042352602 0.86199999
-0.12231081 -0.042352602 0.86199999
-0.12064672 -0.042352602 0.86199999
-0.11925869 -0.042450868 0.86400002
-0.11759074 -0.042450868 0.86400002
-0.11592279 -0.042450868 0.86400002
-0.11425483 -0.042450868 0.86400002
-0.11258688 -0.042450868 0.86400002
-0.11091892 -0.042450868 0.86400002
-0.10963031 -0.042598266 0.86699998
-0.10795656 -0.042598266 0.86699998
-0.10628282 -0.042598266 0.86699998
-0.10460907 -0.042598266 0.86699998
-0.10293533 -0.042598266 0.86699998
-0.10126158 -0.042598266 0.86699998
-0.099587835 -0.042598266 0.86699998
-0.097914092 -0.042598266 0.86699998
-0.096462354 -0.042696532 0.86900002
-0.094784752 -0.042696532 0.86900002
-0.093107142 -0.042696532 0.86900002
-0.091429539 -0.042696532 0.86900002
-0.089958496 -0.042794798 0.87099999
-0.088277027 -0.042794798 0.87099999
-0.086595558 -0.042794798 0.87099999
-0.084914088 -0.042794798 0.87099999
-0.083232626 -0.042794798 0.87099999
-0.081551157 -0.042794798 0.87099999
-0.079869688 -0.042794798 0.87099999
-0.078188226 -0.042794798 0.87099999
-0.076506756 -0.042794798 0.87099999
-0.074825287 -0.042794798 0.87099999
-0.073143825 -0.042794798 0.87099999
-0.071626447 -0.042893063 0.87300003
-0.069941118 -0.042893063 0.87300003
-0.068412162 -0.042991329 0.875
-0.066722974 -0.042991329 0.875
-0.065033786 -0.042991329 0.875
-0.063344598 -0.042991329 0.875
-0.061655406 -0.042991329 0.875
-0.059966218 -0.042991329 0.875
-0.058277026 -0.042991329 0.875
-0.056587838 -0.042991329 0.875
-0.054898649 -0.042991329 0.875
-0.053209461 -0.042991329 0.875
-0.05000193 -0.043138728 0.87800002
-0.15321428 -0.040502891 0.85799998
-0.15155791 -0.040502891 0.85799998
-0.14990154 -0.040502891 0.85799998
-0.14824517 -0.040502891 0.85799998
-0.1469305 -0.040597305 0.86000001
-0.14493243 -0.040502891 0.85799998
-0.14327607 -0.040502891 0.85799998
-0.1419498 -0.040597305 0.86000001
-0.14028957 -0.040597305 0.86000001
-0.13830695 -0.040502891 0.85799998
-0.13665058 -0.040502891 0.85799998
-0.13530888 -0.040597305 0.86000001
-0.13364865 -0.040597305 0.86000001
-0.13198842 -0.040597305 0.86000001
-0.13032819 -0.040597305 0.86000001
-0.12866795 -0.040597305 0.86000001
-0.12700772 -0.040597305 0.86000001
-0.1253475 -0.040597305 0.86000001
-0.12368726 -0.040597305 0.86000001
-0.12202703 -0.040597305 0.86000001
-0.1203668 -0.040597305 0.86000001
-0.11870657 -0.040597305 0.86000001
-0.11704633 -0.040597305 0.86000001
-0.11565444 -0.040691715 0.86199999
-0.11399034 -0.040691715 0.86199999
-0.11232626 -0.040691715 0.86199999
-0.11066216 -0.040691715 0.86199999
-0.10899807 -0.040691715 0.86199999
-0.10733397 -0.040691715 0.86199999
-0.10566989 -0.040691715 0.86199999
-0.10400579 -0.040691715 0.86199999
-0.10257915 -0.040786128 0.86400002
-0.1009112 -0.040786128 0.86400002
-0.099243246 -0.040786128 0.86400002
-0.097575292 -0.040786128 0.86400002
-0.096240349 -0.040927745 0.86699998
-0.094566599 -0.040927745 0.86699998
-0.093107142 -0.041022159 0.86900002
-0.091429539 -0.041022159 0.86900002
-0.089751929 -0.041022159 0.86900002
-0.088074327 -0.041022159 0.86900002
-0.086396717 -0.041022159 0.86900002
-0.084719114 -0.041022159 0.86900002
-0.083041504 -0.041022159 0.86900002
-0.081363901 -0.041022159 0.86900002
-0.079686292 -0.041022159 0.86900002
-0.078008689 -0.041022159 0.86900002
-0.076331079 -0.041022159 0.86900002
-0.074653476 -0.041022159 0.86900002
-0.072975866 -0.041022159 0.86900002
-0.071462356 -0.041116569 0.87099999
-0.069780886 -0.041116569 0.87099999
-0.068099417 -0.041116569 0.87099999
-0.066570468 -0.041210983 0.87300003
-0.064885139 -0.041210983 0.87300003
-0.063199811 -0.041210983 0.87300003
-0.061514482 -0.041210983 0.87300003
-0.1492027 -0.038668592 0.85399997
-0.14755405 -0.038668592 0.85399997
-0.14590541 -0.038668592 0.85399997
-0.14425676 -0.038668592 0.85399997
-0.14260811 -0.038668592 0.85399997
-0.14128958 -0.038759153 0.85600001
-0.13963707 -0.038759153 0.85600001
-0.13798456 -0.038759153 0.85600001
-0.13633205 -0.038759153 0.85600001
-0.13467954 -0.038759153 0.85600001
-0.13333784 -0.038849711 0.85799998
-0.13168146 -0.038849711 0.85799998
-0.13002509 -0.038849711 0.85799998
-0.12836872 -0.038849711 0.85799998
-0.12671235 -0.038849711 0.85799998
-0.12505598 -0.038849711 0.85799998
-0.12339961 -0.038849711 0.85799998
-0.12174324 -0.038849711 0.85799998
-0.12008687 -0.038849711 0.85799998
-0.1184305 -0.038849711 0.85799998
-0.11677413 -0.038849711 0.85799998
-0.1153861 -0.03894027 0.86000001
-0.11372587 -0.03894027 0.86000001
-0.11206564 -0.03894027 0.86000001
-0.11040541 -0.03894027 0.86000001
-0.10874517 -0.03894027 0.86000001
-0.10708494 -0.03894027 0.86000001
-0.10542471 -0.03894027 0.86000001
-0.10376448 -0.03894027 0.86000001
-0.1023417 -0.039030828 0.86199999
-0.10044402 -0.03894027 0.86000001
-0.098783784 -0.03894027 0.86000001
-0.097123556 -0.03894027 0.86000001
-0.095907338 -0.039121389 0.86400002
-0.094239384 -0.039121389 0.86400002
-0.092892855 -0.039257225 0.86699998
-0.091219112 -0.039257225 0.86699998
-0.089751929 -0.039347786 0.86900002
-0.088074327 -0.039347786 0.86900002
-0.086396717 -0.039347786 0.86900002
-0.084719114 -0.039347786 0.86900002
-0.083041504 -0.039347786 0.86900002
-0.081363901 -0.039347786 0.86900002
-0.079502895 -0.039257225 0.86699998
-0.077829152 -0.039257225 0.86699998
-0.076155402 -0.039257225 0.86699998
-0.074481659 -0.039257225 0.86699998
-0.072807916 -0.039257225 0.86699998
-0.071298264 -0.039347786 0.86900002
-0.069620661 -0.039347786 0.86900002
-0.067943051 -0.039347786 0.86900002
-0.066417955 -0.039438341 0.87099999
-0.064736485 -0.039438341 0.87099999
-0.063055016 -0.039438341 0.87099999
-0.14375 -0.036893062 0.85100001
-0.14210714 -0.036893062 0.85100001
-0.14046429 -0.036893062 0.85100001
-0.13882142 -0.036893062 0.85100001
-0.13766216 -0.03702312 0.85399997
-0.13601351 -0.03702312 0.85399997
-0.13436486 -0.03702312 0.85399997
-0.13271621 -0.03702312 0.85399997
-0.13106756 -0.03702312 0.85399997
-0.12972201 -0.037109826 0.85600001
-0.12806951 -0.037109826 0.85600001
-0.12612161 -0.03702312 0.85399997
-0.12447297 -0.03702312 0.85399997
-0.12311197 -0.037109826 0.85600001
-0.12145946 -0.037109826 0.85600001
-0.11980695 -0.037109826 0.85600001
-0.1184305 -0.037196532 0.85799998
-0.11677413 -0.037196532 0.85799998
-0.11511776 -0.037196532 0.85799998
-0.11346139 -0.037196532 0.85799998
-0.11180501 -0.037196532 0.85799998
-0.11014865 -0.037196532 0.85799998
-0.10849228 -0.037196532 0.85799998
-0.1068359 -0.037196532 0.85799998
-0.10542471 -0.037283238 0.86000001
-0.10376448 -0.037283238 0.86000001
-0.10210425 -0.037283238 0.86000001
-0.10044402 -0.037283238 0.86000001
-0.098783784 -0.037283238 0.86000001
-0.097123556 -0.037283238 0.86000001
-0.095463321 -0.037283238 0.86000001
-0.094021231 -0.03736994 0.86199999
-0.092357144 -0.03736994 0.86199999
-0.090903476 -0.037456647 0.86400002
-0.089545362 -0.037586704 0.86699998
-0.087871619 -0.037586704 0.86699998
-0.086197875 -0.037586704 0.86699998
-0.084524132 -0.037586704 0.86699998
-0.082850382 -0.037586704 0.86699998
-0.081176639 -0.037586704 0.86699998
-0.079502895 -0.037586704 0.86699998
-0.077829152 -0.037586704 0.86699998
-0.076155402 -0.037586704 0.86699998
-0.074481659 -0.037586704 0.86699998
-0.072807916 -0.037586704 0.86699998
-0.071134165 -0.037586704 0.86699998
-0.069460422 -0.037586704 0.86699998
-0.067786679 -0.037586704 0.86699998
-0.066112936 -0.037586704 0.86699998
-0.064439185 -0.037586704 0.86699998
-0.062910236 -0.03767341 0.86900002
-0.14143918 -0.035087667 0.847
-0.13980405 -0.035087667 0.847
-0.13849518 -0.035170518 0.84899998
-0.13717857 -0.035253372 0.85100001
-0.13553572 -0.035253372 0.85100001
-0.13389286 -0.035253372 0.85100001
-0.13225 -0.035253372 0.85100001
-0.13060714 -0.035253372 0.85100001
-0.12941891 -0.035377648 0.85399997
-0.12732144 -0.035253372 0.85100001
-0.12567857 -0.035253372 0.85100001
-0.12447297 -0.035377648 0.85399997
-0.12282432 -0.035377648 0.85399997
-0.12117567 -0.035377648 0.85399997
-0.11952702 -0.035377648 0.85399997
-0.11787838 -0.035377648 0.85399997
-0.11622973 -0.035377648 0.85399997
-0.11458108 -0.035377648 0.85399997
-0.11319691 -0.035460502 0.85600001
-0.1115444 -0.035460502 0.85600001
-0.10989189 -0.035460502 0.85600001
-0.10823938 -0.035460502 0.85600001
-0.1068359 -0.035543352 0.85799998
-0.10517953 -0.035543352 0.85799998
-0.10352316 -0.035543352 0.85799998
-0.1018668 -0.035543352 0.85799998
-0.10021042 -0.035543352 0.85799998
-0.098554052 -0.035543352 0.85799998
-0.096897684 -0.035543352 0.85799998
-0.095463321 -0.035626207 0.86000001
-0.093803093 -0.035626207 0.86000001
-0.092142858 -0.035626207 0.86000001
-0.09048263 -0.035626207 0.86000001
-0.088822395 -0.035626207 0.86000001
-0.087364867 -0.035709057 0.86199999
-0.085700773 -0.035709057 0.86199999
-0.08423166 -0.035791907 0.86400002
-0.082563706 -0.035791907 0.86400002
-0.080895752 -0.035791907 0.86400002
-0.079227798 -0.035791907 0.86400002
-0.077559851 -0.035791907 0.86400002
-0.075891897 -0.035791907 0.86400002
-0.074223943 -0.035791907 0.86400002
-0.066112936 -0.035916183 0.86699998
-0.064439185 -0.035916183 0.86699998
-0.14110522 -0.033376686 0.84500003
-0.13947394 -0.033376686 0.84500003
-0.13784267 -0.033376686 0.84500003
-0.13653378 -0.033455685 0.847
-0.13521717 -0.03353468 0.84899998
-0.13357818 -0.03353468 0.84899998
-0.13193919 -0.03353468 0.84899998
-0.13030019 -0.03353468 0.84899998
-0.1286612 -0.03353468 0.84899998
-0.12702219 -0.03353468 0.84899998
-0.1253832 -0.03353468 0.84899998
-0.1237442 -0.03353468 0.84899998
-0.12210521 -0.03353468 0.84899998
-0.12075 -0.033613682 0.85100001
-0.11910714 -0.033613682 0.85100001
-0.11746429 -0.033613682 0.85100001
-0.11582143 -0.033613682 0.85100001
-0.11458108 -0.033732176 0.85399997
-0.11293243 -0.033732176 0.85399997
-0.11128378 -0.033732176 0.85399997
-0.10963513 -0.033732176 0.85399997
-0.10798648 -0.033732176 0.85399997
-0.10658687 -0.033811174 0.85600001
-0.10493436 -0.033811174 0.85600001
-0.10328186 -0.033811174 0.85600001
-0.10162935 -0.033811174 0.85600001
-0.099976838 -0.033811174 0.85600001
-0.098324329 -0.033811174 0.85600001
-0.096671812 -0.033811174 0.85600001
-0.095241308 -0.033890173 0.85799998
-0.09358494 -0.033890173 0.85799998
-0.091928571 -0.033890173 0.85799998
-0.090272196 -0.033890173 0.85799998
-0.088615827 -0.033890173 0.85799998
-0.086959459 -0.033890173 0.85799998
-0.085501932 -0.033969171 0.86000001
-0.083841704 -0.033969171 0.86000001
-0.082181469 -0.033969171 0.86000001
-0.14273649 -0.031748556 0.84500003
-0.14110522 -0.031748556 0.84500003
-0.13914382 -0.031673409 0.84299999
-0.13751641 -0.031673409 0.84299999
-0.1362114 -0.031748556 0.84500003
-0.13458012 -0.031748556 0.84500003
-0.13326351 -0.031823698 0.847
-0.13162838 -0.031823698 0.847
-0.1296863 -0.031748556 0.84500003
-0.12805502 -0.031748556 0.84500003
-0.12672298 -0.031823698 0.847
-0.12508784 -0.031823698 0.847
-0.1234527 -0.031823698 0.847
-0.12181757 -0.031823698 0.847
-0.12046621 -0.031898841 0.84899998
-0.11882722 -0.031898841 0.84899998
-0.11718822 -0.031898841 0.84899998
-0.11554922 -0.031898841 0.84899998
-0.11417858 -0.031973988 0.85100001
-0.11253572 -0.031973988 0.85100001
-0.11089286 -0.031973988 0.85100001
-0.10925 -0.031973988 0.85100001
-0.10760714 -0.031973988 0.85100001
-0.10633784 -0.032086704 0.85399997
-0.10468919 -0.032086704 0.85399997
-0.10304054 -0.032086704 0.85399997
-0.10139189 -0.032086704 0.85399997
-0.09974324 -0.032086704 0.85399997
-0.098324329 -0.03216185 0.85600001
-0.096671812 -0.03216185 0.85600001
-0.095019303 -0.03216185 0.85600001
-0.093366794 -0.03216185 0.85600001
-0.091714285 -0.03216185 0.85600001
-0.090061776 -0.03216185 0.85600001
-0.088409267 -0.03216185 0.85600001
-0.086756758 -0.03216185 0.85600001
-0.085303091 -0.032236993 0.85799998
-0.14077124 -0.030049132 0.84299999
-0.13914382 -0.030049132 0.84299999
-0.13751641 -0.030049132 0.84299999
-0.13588899 -0.030049132 0.84299999
-0.13426158 -0.030049132 0.84299999
-0.13263416 -0.030049132 0.84299999
-0.13131757 -0.030120425 0.84500003
-0.1296863 -0.030120425 0.84500003
-0.12805502 -0.030120425 0.84500003
-0.12642375 -0.030120425 0.84500003
-0.12479248 -0.030120425 0.84500003
-0.1231612 -0.030120425 0.84500003
-0.12152993 -0.030120425 0.84500003
-0.12018243 -0.030191716 0.847
-0.1185473 -0.030191716 0.847
-0.11691216 -0.030191716 0.847
-0.11527703 -0.030191716 0.847
-0.11391023 -0.030263005 0.84899998
-0.11227123 -0.030263005 0.84899998
-0.11063223 -0.030263005 0.84899998
-0.10899324 -0.030263005 0.84899998
-0.10735425 -0.030263005 0.84899998
-0.10596429 -0.030334298 0.85100001
-0.10432143 -0.030334298 0.85100001
-0.10267857 -0.030334298 0.85100001
-0.10139189 -0.030441232 0.85399997
-0.09974324 -0.030441232 0.85399997
-0.09809459 -0.030441232 0.85399997
-0.09644594 -0.030441232 0.85399997
-0.094797291 -0.030441232 0.85399997
-0.093148649 -0.030441232 0.85399997
-0.091714285 -0.030512525 0.85600001
-0.08985135 -0.030441232 0.85399997
-0.0882027 -0.030441232 0.85399997
-0.08655405 -0.030441232 0.85399997
-0.1388137 -0.028357418 0.84100002
-0.13719016 -0.028357418 0.84100002
-0.13556661 -0.028357418 0.84100002
-0.13426158 -0.028424855 0.84299999
-0.13263416 -0.028424855 0.84299999
-0.13100676 -0.028424855 0.84299999
-0.12937935 -0.028424855 0.84299999
-0.12775193 -0.028424855 0.84299999
-0.12612452 -0.028424855 0.84299999
-0.12479248 -0.028492294 0.84500003
-0.1231612 -0.028492294 0.84500003
-0.12152993 -0.028492294 0.84500003
-0.11989865 -0.028492294 0.84500003
-0.11826738 -0.028492294 0.84500003
-0.11691216 -0.028559729 0.847
-0.11527703 -0.028559729 0.847
-0.1136419 -0.028559729 0.847
-0.11200675 -0.028559729 0.847
-0.11063223 -0.028627167 0.84899998
-0.10873649 -0.028559729 0.847
-0.10710135 -0.028559729 0.847
-0.10571525 -0.028627167 0.84899998
-0.10407625 -0.028627167 0.84899998
-0.10243726 -0.028627167 0.84899998
-0.10079826 -0.028627167 0.84899998
-0.099159263 -0.028627167 0.84899998
-0.097750001 -0.028694605 0.85100001
-0.09644594 -0.02879576 0.85399997
-0.094464287 -0.028694605 0.85100001
-0.092821427 -0.028694605 0.85100001
-0.091178574 -0.028694605 0.85100001
-0.089535713 -0.028694605 0.85100001
-0.08789286 -0.028694605 0.85100001
-0.08655405 -0.02879576 0.85399997
-0.084905401 -0.02879576 0.85399997
-0.13719016 -0.026736995 0.84100002
-0.13556661 -0.026736995 0.84100002
-0.13394305 -0.026736995 0.84100002
-0.1323195 -0.026736995 0.84100002
-0.13069595 -0.026736995 0.84100002
-0.1290724 -0.026736995 0.84100002
-0.12775193 -0.026800578 0.84299999
-0.12612452 -0.026800578 0.84299999
-0.1244971 -0.026800578 0.84299999
-0.12286969 -0.026800578 0.84299999
-0.12124228 -0.026800578 0.84299999
-0.11989865 -0.026864164 0.84500003
-0.11826738 -0.026864164 0.84500003
-0.1166361 -0.026864164 0.84500003
-0.11500483 -0.026864164 0.84500003
-0.11337356 -0.026864164 0.84500003
-0.11200675 -0.026927745 0.847
-0.11037162 -0.026927745 0.847
-0.10873649 -0.026927745 0.847
-0.10710135 -0.026927745 0.847
-0.10546622 -0.026927745 0.847
-0.10383108 -0.026927745 0.847
-0.10219595 -0.026927745 0.847
-0.10079826 -0.026991328 0.84899998
-0.099159263 -0.026991328 0.84899998
-0.097520269 -0.026991328 0.84899998
-0.096107148 -0.027054913 0.85100001
-0.094464287 -0.027054913 0.85100001
-0.092821427 -0.027054913 0.85100001
-0.091178574 -0.027054913 0.85100001
-0.089535713 -0.027054913 0.85100001
-0.08789286 -0.027054913 0.85100001
-0.08625 -0.027054913 0.85100001
-0.13719016 -0.02511657 0.84100002
-0.13524421 -0.025056839 0.83899999
-0.13362451 -0.025056839 0.83899999
-0.1323195 -0.02511657 0.84100002
-0.13069595 -0.02511657 0.84100002
-0.1290724 -0.02511657 0.84100002
-0.12744884 -0.02511657 0.84100002
-0.12582529 -0.02511657 0.84100002
-0.12420174 -0.02511657 0.84100002
-0.12257819 -0.02511657 0.84100002
-0.12095463 -0.02511657 0.84100002
-0.11961486 -0.0251763 0.84299999
-0.11798745 -0.0251763 0.84299999
-0.11636004 -0.0251763 0.84299999
-0.11473262 -0.0251763 0.84299999
-0.11310522 -0.0251763 0.84299999
-0.1114778 -0.0251763 0.84299999
-0.11011101 -0.025236031 0.84500003
-0.10822297 -0.0251763 0.84299999
-0.10659556 -0.0251763 0.84299999
-0.10496815 -0.0251763 0.84299999
-0.10334073 -0.0251763 0.84299999
-0.10195464 -0.025236031 0.84500003
-0.10032336 -0.025236031 0.84500003
-0.098692089 -0.025236031 0.84500003
-0.097290538 -0.02529576 0.847
-0.095881268 -0.02535549 0.84899998
-0.094242275 -0.02535549 0.84899998
-0.092603281 -0.02535549 0.84899998
-0.09096428 -0.02535549 0.84899998
-0.089535713 -0.025415221 0.85100001
-0.08789286 -0.025415221 0.85100001
-0.13524421 -0.02344027 0.83899999
-0.13362451 -0.02344027 0.83899999
-0.12876545 -0.02344027 0.83899999
-0.12714575 -0.02344027 0.83899999
-0.12522684 -0.023384394 0.83700001
-0.123611 -0.023384394 0.83700001
-0.12228668 -0.02344027 0.83899999
-0.12066699 -0.02344027 0.83899999
-0.11933108 -0.023496147 0.84100002
-0.11770753 -0.023496147 0.84100002
-0.11608398 -0.023496147 0.84100002
-0.11446043 -0.023496147 0.84100002
-0.11283688 -0.023496147 0.84100002
-0.11121333 -0.023496147 0.84100002
-0.10958977 -0.023496147 0.84100002
-0.10796622 -0.023496147 0.84100002
-0.10634267 -0.023496147 0.84100002
-0.10496815 -0.023552023 0.84299999
-0.10334073 -0.023552023 0.84299999
-0.10171332 -0.023552023 0.84299999
-0.10032336 -0.0236079 0.84500003
-0.098692089 -0.0236079 0.84500003
-0.097060814 -0.0236079 0.84500003
-0.095655404 -0.023663776 0.847
-0.094242275 -0.023719652 0.84899998
-0.092603281 -0.023719652 0.84899998
-0.13362451 -0.021823699 0.83899999
-0.12199517 -0.021771677 0.83700001
-0.12037934 -0.021771677 0.83700001
-0.1190473 -0.021823699 0.83899999
-0.1174276 -0.021823699 0.83899999
-0.11580791 -0.021823699 0.83899999
-0.11418822 -0.021823699 0.83899999
-0.11283688 -0.021875722 0.84100002
-0.11121333 -0.021875722 0.84100002
-0.10958977 -0.021875722 0.84100002
-0.10796622 -0.021875722 0.84100002
-0.10634267 -0.021875722 0.84100002
-0.10496815 -0.021927746 0.84299999
-0.10334073 -0.021927746 0.84299999
-0.12302027 -0.02006262 0.833
-0.12170366 -0.02011079 0.83499998
-0.1200917 -0.02011079 0.83499998
-0.11847973 -0.02011079 0.83499998
-0.11714768 -0.02015896 0.83700001
-0.11553185 -0.02015896 0.83700001
-0.11068437 -0.02015896 0.83700001
-0.12432915 -0.018413294 0.83099997
-0.12302027 -0.01845761 0.833
-0.12141217 -0.01845761 0.833
-0.17096525 -0.042450868 0.86400002
-0.17096525 -0.042450868 0.86400002
-0.14728089 -0.030049132 0.84299999
-0.14728089 -0.030049132 0.84299999
-0.14565347 -0.028424855 0.84299999
-0.14565347 -0.028424855 0.84299999
-0.14402606 -0.026800578 0.84299999
-0.14402606 -0.026800578 0.84299999
-0.14368437 -0.02511657 0.84100002
-0.14368437 -0.02511657 0.84100002
-0.072555989 -0.035791907 0.86400002
-0.072555989 -0.035791907 0.86400002
-0.070888035 -0.035791907 0.86400002
-0.070888035 -0.035791907 0.86400002
-0.069220081 -0.035791907 0.86400002
-0.069220081 -0.035791907 0.86400002
-0.080521233 -0.033969171 0.86000001
-0.080521233 -0.033969171 0.86000001
-0.078861006 -0.033969171 0.86000001
-0.078861006 -0.033969171 0.86000001
-0.077380307 -0.03404817 0.86199999
-0.077380307 -0.03404817 0.86199999
-0.075716212 -0.03404817 0.86199999
-0.075716212 -0.03404817 0.86199999
-0.074052125 -0.03404817 0.86199999
-0.074052125 -0.03404817 0.86199999
-0.072388031 -0.03404817 0.86199999
-0.072388031 -0.03404817 0.86199999
-0.070723936 -0.03404817 0.86199999
-0.070723936 -0.03404817 0.86199999
-0.075540543 -0.03231214 0.86000001
-0.075540543 -0.03231214 0.86000001
-0.1249276 -0.021719653 0.83499998
-0.1249276 -0.021719653 0.83499998
-0.12331563 -0.021719653 0.83499998
-0.12331563 -0.021719653 0.83499998
-0.12462838 -0.02006262 0.833
-0.12462838 -0.02006262 0.833
-0.14565347 -0.030049132 0.84299999
-0.14565347 -0.030049132 0.84299999
-0.14402606 -0.030049132 0.84299999
-0.14402606 -0.030049132 0.84299999
-0.14402606 -0.028424855 0.84299999
-0.14402606 -0.028424855 0.84299999
-0.14239864 -0.026800578 0.84299999
-0.14239864 -0.026800578 0.84299999
-0.14206082 -0.02511657 0.84100002
-0.14206082 -0.02511657 0.84100002
-0.14043726 -0.02511657 0.84100002
-0.14043726 -0.02511657 0.84100002
-0.14043726 -0.023496147 0.84100002
-0.14043726 -0.023496147 0.84100002
-0.1388137 -0.023496147 0.84100002
-0.1388137 -0.023496147 0.84100002
-0.026116796 -0.085390173 0.93300003
-0.026116796 -0.085390173 0.93300003
-0.024315638 -0.085390173 0.93300003
-0.024315638 -0.085390173 0.93300003
-0.027917955 -0.083592489 0.93300003
-0.027917955 -0.083592489 0.93300003
-0.026116796 -0.083592489 0.93300003
-0.026116796 -0.083592489 0.93300003
-0.024315638 -0.083592489 0.93300003
-0.024315638 -0.083592489 0.93300003
-0.020824324 -0.082233146 0.93800002
-0.020824324 -0.082233146 0.93800002
-0.14239864 -0.028424855 0.84299999
-0.14239864 -0.028424855 0.84299999
-0.12684266 -0.021771677 0.83700001
-0.12684266 -0.021771677 0.83700001
-0.16172974 -0.068192683 0.89600003
-0.16172974 -0.068192683 0.89600003
-0.15862355 -0.068344891 0.898
-0.15862355 -0.068344891 0.898
-0.15688996 -0.068344891 0.898
-0.15688996 -0.068344891 0.898
-0.16172974 -0.066466287 0.89600003
-0.16172974 -0.066466287 0.89600003
-0.16035715 -0.066614643 0.898
-0.16035715 -0.066614643 0.898
-0.15862355 -0.066614643 0.898
-0.15862355 -0.066614643 0.898
-0.15688996 -0.066614643 0.898
-0.15688996 -0.066614643 0.898
-0.15515637 -0.066614643 0.898
-0.15515637 -0.066614643 0.898
-0.16172974 -0.064739883 0.89600003
-0.16172974 -0.064739883 0.89600003
-0.16035715 -0.064884394 0.898
-0.16035715 -0.064884394 0.898
-0.15862355 -0.064884394 0.898
-0.15862355 -0.064884394 0.898
-0.15688996 -0.064884394 0.898
-0.15688996 -0.064884394 0.898
-0.15393533 -0.065101154 0.90100002
-0.15393533 -0.065101154 0.90100002
-0.16172974 -0.063013487 0.89600003
-0.16172974 -0.063013487 0.89600003
-0.16035715 -0.063154146 0.898
-0.16035715 -0.063154146 0.898
-0.16209073 -0.061423894 0.898
-0.16209073 -0.061423894 0.898
-0.13038513 -0.02344027 0.83899999
-0.13038513 -0.02344027 0.83899999
-0.13038513 -0.021823699 0.83899999
-0.13038513 -0.021823699 0.83899999
-0.12653957 -0.02011079 0.83499998
-0.12653957 -0.02011079 0.83499998
-0.014292471 -0.05286416 0.87099999
-0.014292471 -0.05286416 0.87099999
-0.016010618 -0.051303469 0.87300003
-0.016010618 -0.051303469 0.87300003
-0.016010618 -0.049621388 0.87300003
-0.016010618 -0.049621388 0.87300003
-0.017797297 -0.048213873 0.87800002
-0.017797297 -0.048213873 0.87800002
-0.016010618 -0.047939308 0.87300003
-0.016010618 -0.047939308 0.87300003
-0.017797297 -0.046522159 0.87800002
-0.017797297 -0.046522159 0.87800002
-0.1284585 -0.021771677 0.83700001
-0.1284585 -0.021771677 0.83700001
-0.15632722 -0.055419076 0.88499999
-0.15632722 -0.055419076 0.88499999
-0.16600484 -0.052985549 0.87300003
-0.16600484 -0.052985549 0.87300003
-0.1643195 -0.052985549 0.87300003
-0.1643195 -0.052985549 0.87300003
-0.14565347 -0.026800578 0.84299999
-0.14565347 -0.026800578 0.84299999
-0.12815154 -0.02011079 0.83499998
-0.12815154 -0.02011079 0.83499998
-0.13200483 -0.02344027 0.83899999
-0.13200483 -0.02344027 0.83899999
-0.14436777 -0.031748556 0.84500003
-0.14436777 -0.031748556 0.84500003
-0.14239864 -0.030049132 0.84299999
-0.14239864 -0.030049132 0.84299999
-0.14043726 -0.028357418 0.84100002
-0.14043726 -0.028357418 0.84100002
-0.14043726 -0.026736995 0.84100002
-0.14043726 -0.026736995 0.84100002
-0.1388137 -0.026736995 0.84100002
-0.1388137 -0.026736995 0.84100002
-0.1388137 -0.02511657 0.84100002
-0.1388137 -0.02511657 0.84100002
-0.14926159 -0.031748556 0.84500003
-0.14926159 -0.031748556 0.84500003
-0.11391602 -0.02015896 0.83700001
-0.11391602 -0.02015896 0.83700001
-0.11980405 -0.01845761 0.833
-0.11980405 -0.01845761 0.833
-0.11819594 -0.01845761 0.833
-0.11819594 -0.01845761 0.833
-0.11686776 -0.018501926 0.83499998
-0.11686776 -0.018501926 0.83499998
-0.14728089 -0.028424855 0.84299999
-0.14728089 -0.028424855 0.84299999
-0.14728089 -0.026800578 0.84299999
-0.14728089 -0.026800578 0.84299999
-0.14530791 -0.02511657 0.84100002
-0.14530791 -0.02511657 0.84100002
-0.14530791 -0.023496147 0.84100002
-0.14530791 -0.023496147 0.84100002
-0.14368437 -0.023496147 0.84100002
-0.14368437 -0.023496147 0.84100002
-0.069059841 -0.03404817 0.86199999
-0.069059841 -0.03404817 0.86199999
-0.067552127 -0.035791907 0.86400002
-0.067552127 -0.035791907 0.86400002
-0.081990346 -0.032236993 0.85799998
-0.081990346 -0.032236993 0.85799998
-0.080333978 -0.032236993 0.85799998
-0.080333978 -0.032236993 0.85799998
-0.078677602 -0.032236993 0.85799998
-0.078677602 -0.032236993 0.85799998
-0.085104249 -0.030512525 0.85600001
-0.085104249 -0.030512525 0.85600001
-0.08345174 -0.030512525 0.85600001
-0.08345174 -0.030512525 0.85600001
-0.13200483 -0.021823699 0.83899999
-0.13200483 -0.021823699 0.83899999
-0.14926159 -0.030120425 0.84500003
-0.14926159 -0.030120425 0.84500003
-0.12976351 -0.02011079 0.83499998
-0.12976351 -0.02011079 0.83499998
-0.10008591 -0.021927746 0.84299999
-0.10008591 -0.021927746 0.84299999
-0.098458491 -0.021927746 0.84299999
-0.098458491 -0.021927746 0.84299999
-0.096831083 -0.021927746 0.84299999
-0.096831083 -0.021927746 0.84299999
-0.09542954 -0.02197977 0.84500003
-0.09542954 -0.02197977 0.84500003
-0.094242275 -0.022083815 0.84899998
-0.094242275 -0.022083815 0.84899998
-0.092603281 -0.022083815 0.84899998
-0.092603281 -0.022083815 0.84899998
-0.10608976 -0.020207129 0.83899999
-0.10608976 -0.020207129 0.83899999
-0.10471912 -0.020255299 0.84100002
-0.10471912 -0.020255299 0.84100002
-0.10309556 -0.020255299 0.84100002
-0.10309556 -0.020255299 0.84100002
-0.041621622 -0.044932563 0.88
-0.041621622 -0.044932563 0.88
-0.040013514 -0.045034684 0.88200003
-0.040013514 -0.045034684 0.88200003
-0.10309556 -0.018634874 0.84100002
-0.10309556 -0.018634874 0.84100002
-0.10147201 -0.018634874 0.84100002
-0.10147201 -0.018634874 0.84100002
-0.099848457 -0.018634874 0.84100002
-0.099848457 -0.018634874 0.84100002
-0.10309556 -0.017014451 0.84100002
-0.10309556 -0.017014451 0.84100002
-0.10147201 -0.017014451 0.84100002
-0.10147201 -0.017014451 0.84100002
-0.13106081 -0.02006262 0.833
-0.13106081 -0.02006262 0.833
-0.078677602 -0.030583814 0.85799998
-0.078677602 -0.030583814 0.85799998
-0.083256751 -0.02879576 0.85399997
-0.083256751 -0.02879576 0.85399997
-0.046452701 -0.041305397 0.875
-0.046452701 -0.041305397 0.875
-0.044763513 -0.041305397 0.875
-0.044763513 -0.041305397 0.875
-0.14763032 -0.031748556 0.84500003
-0.14763032 -0.031748556 0.84500003
-0.11230019 -0.02015896 0.83700001
-0.11230019 -0.02015896 0.83700001
-0.11525579 -0.018501926 0.83499998
-0.11525579 -0.018501926 0.83499998
-0.099642858 -0.083323702 0.93000001
-0.099642858 -0.083323702 0.93000001
-0.097847492 -0.083323702 0.93000001
-0.097847492 -0.083323702 0.93000001
-0.096052125 -0.083323702 0.93000001
-0.096052125 -0.083323702 0.93000001
-0.099428572 -0.081356451 0.92799997
-0.099428572 -0.081356451 0.92799997
-0.041527029 -0.043138728 0.87800002
-0.041527029 -0.043138728 0.87800002
-0.039922781 -0.043236993 0.88
-0.039922781 -0.043236993 0.88
-0.038310811 -0.043335263 0.88200003
-0.038310811 -0.043335263 0.88200003
-0.043074325 -0.039619461 0.875
-0.043074325 -0.039619461 0.875
-0.067552127 -0.034127168 0.86400002
-0.067552127 -0.034127168 0.86400002
-0.14436777 -0.033376686 0.84500003
-0.14436777 -0.033376686 0.84500003
-0.083646715 -0.032236993 0.85799998
-0.083646715 -0.032236993 0.85799998
-0.13719016 -0.023496147 0.84100002
-0.13719016 -0.023496147 0.84100002
-0.13524421 -0.021823699 0.83899999
-0.13524421 -0.021823699 0.83899999
-0.14505115 -0.036806356 0.84899998
-0.14505115 -0.036806356 0.84899998
-0.14599904 -0.031748556 0.84500003
-0.14599904 -0.031748556 0.84500003
-0.10301158 -0.079568401 0.92799997
-0.10301158 -0.079568401 0.92799997
-0.081799231 -0.030512525 0.85600001
-0.081799231 -0.030512525 0.85600001
-0.080333978 -0.030583814 0.85799998
-0.080333978 -0.030583814 0.85799998
-0.059829153 -0.041210983 0.87300003
-0.059829153 -0.041210983 0.87300003
-0.058143824 -0.041210983 0.87300003
-0.058143824 -0.041210983 0.87300003
-0.059829153 -0.039528903 0.87300003
-0.059829153 -0.039528903 0.87300003
-0.17096525 -0.044115607 0.86400002
-0.17096525 -0.044115607 0.86400002
-0.16929731 -0.042450868 0.86400002
-0.16929731 -0.042450868 0.86400002
-0.1631525 -0.040502891 0.85799998
-0.1631525 -0.040502891 0.85799998
-0.1611197 -0.038759153 0.85600001
-0.1611197 -0.038759153 0.85600001
-0.15689287 -0.036893062 0.85100001
-0.15689287 -0.036893062 0.85100001
-0.15525 -0.036893062 0.85100001
-0.15525 -0.036893062 0.85100001
-0.15324613 -0.035170518 0.84899998
-0.15324613 -0.035170518 0.84899998
-0.15160714 -0.03353468 0.84899998
-0.15160714 -0.03353468 0.84899998
-0.14307432 -0.035087667 0.847
-0.14307432 -0.035087667 0.847
-0.14273649 -0.033376686 0.84500003
-0.14273649 -0.033376686 0.84500003
-0.031678572 -0.048708092 0.88700002
-0.031678572 -0.048708092 0.88700002
-0.030033784 -0.048817918 0.889
-0.030033784 -0.048817918 0.889
-0.028317567 -0.048817918 0.889
-0.028317567 -0.048817918 0.889
-0.026601352 -0.048817918 0.889
-0.026601352 -0.048817918 0.889
-0.024885135 -0.048817918 0.889
-0.024885135 -0.048817918 0.889
-0.062765442 -0.035916183 0.86699998
-0.062765442 -0.035916183 0.86699998
-0.061232626 -0.035999037 0.86900002
-0.061232626 -0.035999037 0.86900002
-0.065884173 -0.034127168 0.86400002
-0.065884173 -0.034127168 0.86400002
-0.064216219 -0.034127168 0.86400002
-0.064216219 -0.034127168 0.86400002
-0.062765442 -0.034245662 0.86699998
-0.062765442 -0.034245662 0.86699998
-0.17274614 -0.054667633 0.87300003
-0.17274614 -0.054667633 0.87300003
-0.17274614 -0.052985549 0.87300003
-0.17274614 -0.052985549 0.87300003
-0.046611968 -0.044830445 0.87800002
-0.046611968 -0.044830445 0.87800002
-0.04322201 -0.041447014 0.87800002
-0.04322201 -0.041447014 0.87800002
-0.041527029 -0.041447014 0.87800002
-0.041527029 -0.041447014 0.87800002
-0.11364382 -0.018501926 0.83499998
-0.11364382 -0.018501926 0.83499998
-0.11230019 -0.018546242 0.83700001
-0.11230019 -0.018546242 0.83700001
-0.11658784 -0.0168526 0.833
-0.11658784 -0.0168526 0.833
-0.14669015 -0.036806356 0.84899998
-0.14669015 -0.036806356 0.84899998
-0.13266891 -0.02006262 0.833
-0.13266891 -0.02006262 0.833
-0.06137355 -0.039438341 0.87099999
-0.06137355 -0.039438341 0.87099999
-0.051520269 -0.041305397 0.875
-0.051520269 -0.041305397 0.875
-0.049831081 -0.041305397 0.875
-0.049831081 -0.041305397 0.875
-0.048141893 -0.041305397 0.875
-0.048141893 -0.041305397 0.875
-0.053087838 -0.039528903 0.87300003
-0.053087838 -0.039528903 0.87300003
-0.051402513 -0.039528903 0.87300003
-0.051402513 -0.039528903 0.87300003
-0.049831081 -0.039619461 0.875
-0.049831081 -0.039619461 0.875
-0.17106082 -0.054667633 0.87300003
-0.17106082 -0.054667633 0.87300003
-0.17106082 -0.052985549 0.87300003
-0.17106082 -0.052985549 0.87300003
-0.16898745 -0.051185936 0.87099999
-0.16898745 -0.051185936 0.87099999
-0.15487066 -0.040502891 0.85799998
-0.15487066 -0.040502891 0.85799998
-0.15085134 -0.038668592 0.85399997
-0.15085134 -0.038668592 0.85399997
-0.14599904 -0.033376686 0.84500003
-0.14599904 -0.033376686 0.84500003
-0.16563706 -0.056801543 0.88
-0.16563706 -0.056801543 0.88
-0.10719594 -0.016893063 0.83499998
-0.10719594 -0.016893063 0.83499998
-0.16976352 -0.05479287 0.875
-0.16976352 -0.05479287 0.875
-0.16807432 -0.05479287 0.875
-0.16807432 -0.05479287 0.875
-0.16976352 -0.053106938 0.875
-0.16976352 -0.053106938 0.875
-0.16807432 -0.053106938 0.875
-0.16807432 -0.053106938 0.875
-0.10480309 -0.079568401 0.92799997
-0.10480309 -0.079568401 0.92799997
-0.073880307 -0.03231214 0.86000001
-0.073880307 -0.03231214 0.86000001
-0.07222008 -0.03231214 0.86000001
-0.07222008 -0.03231214 0.86000001
-0.070723936 -0.032387283 0.86199999
-0.070723936 -0.032387283 0.86199999
-0.14763032 -0.033376686 0.84500003
-0.14763032 -0.033376686 0.84500003
-0.11041988 -0.016893063 0.83499998
-0.11041988 -0.016893063 0.83499998
-0.10880791 -0.016893063 0.83499998
-0.10880791 -0.016893063 0.83499998
-0.11762838 -0.015174374 0.829
-0.11762838 -0.015174374 0.829
-0.11602799 -0.015174374 0.829
-0.11602799 -0.015174374 0.829
-0.11470366 -0.015210982 0.83099997
-0.11470366 -0.015210982 0.83099997
-0.11337163 -0.015247592 0.833
-0.11337163 -0.015247592 0.833
-0.067395754 -0.032387283 0.86199999
-0.067395754 -0.032387283 0.86199999
-0.06573166 -0.032387283 0.86199999
-0.06573166 -0.032387283 0.86199999
-0.051520269 -0.042991329 0.875
-0.051520269 -0.042991329 0.875
-0.054898649 -0.041305397 0.875
-0.054898649 -0.041305397 0.875
-0.13480213 -0.068573222 0.90100002
-0.13480213 -0.068573222 0.90100002
-0.038310811 -0.045034684 0.88200003
-0.038310811 -0.045034684 0.88200003
-0.036732625 -0.045187861 0.88499999
-0.036732625 -0.045187861 0.88499999
-0.14206082 -0.023496147 0.84100002
-0.14206082 -0.023496147 0.84100002
-0.10147201 -0.020255299 0.84100002
-0.10147201 -0.020255299 0.84100002
-0.099848457 -0.020255299 0.84100002
-0.099848457 -0.020255299 0.84100002
-0.098458491 -0.020303467 0.84299999
-0.098458491 -0.020303467 0.84299999
-0.096831083 -0.020303467 0.84299999
-0.096831083 -0.020303467 0.84299999
-0.10471912 -0.018634874 0.84100002
-0.10471912 -0.018634874 0.84100002
-0.14470945 -0.035087667 0.847
-0.14470945 -0.035087667 0.847
-0.1568919 -0.042254336 0.86000001
-0.1568919 -0.042254336 0.86000001
-0.10659459 -0.079568401 0.92799997
-0.10659459 -0.079568401 0.92799997
-0.14832915 -0.036806356 0.84899998
-0.14832915 -0.036806356 0.84899998
-0.14138514 -0.021771677 0.83700001
-0.14138514 -0.021771677 0.83700001
-0.061232626 -0.03767341 0.86900002
-0.061232626 -0.03767341 0.86900002
-0.10171332 -0.021927746 0.84299999
-0.10171332 -0.021927746 0.84299999
-0.15125 -0.031823698 0.847
-0.15125 -0.031823698 0.847
-0.044763513 -0.037933525 0.875
-0.044763513 -0.037933525 0.875
-0.043074325 -0.037933525 0.875
-0.043074325 -0.037933525 0.875
-0.15160714 -0.035170518 0.84899998
-0.15160714 -0.035170518 0.84899998
-0.019891892 -0.052655108 0.89600003
-0.019891892 -0.052655108 0.89600003
-0.04322201 -0.043138728 0.87800002
-0.04322201 -0.043138728 0.87800002
-0.069059841 -0.032387283 0.86199999
-0.069059841 -0.032387283 0.86199999
-0.14138514 -0.02015896 0.83700001
-0.14138514 -0.02015896 0.83700001
-0.048141893 -0.039619461 0.875
-0.048141893 -0.039619461 0.875
-0.046452701 -0.039619461 0.875
-0.046452701 -0.039619461 0.875
-0.044763513 -0.039619461 0.875
-0.044763513 -0.039619461 0.875
-0.053087838 -0.037846822 0.87300003
-0.053087838 -0.037846822 0.87300003
-0.051402513 -0.037846822 0.87300003
-0.051402513 -0.037846822 0.87300003
-0.049831081 -0.037933525 0.875
-0.049831081 -0.037933525 0.875
-0.048141893 -0.037933525 0.875
-0.048141893 -0.037933525 0.875
-0.046452701 -0.037933525 0.875
-0.046452701 -0.037933525 0.875
-0.053087838 -0.036164742 0.87300003
-0.053087838 -0.036164742 0.87300003
-0.1382809 -0.066837192 0.90100002
-0.1382809 -0.066837192 0.90100002
-0.046611968 -0.043138728 0.87800002
-0.046611968 -0.043138728 0.87800002
-0.034905408 -0.041635841 0.88200003
-0.034905408 -0.041635841 0.88200003
-0.033315636 -0.041777458 0.88499999
-0.033315636 -0.041777458 0.88499999
-0.039832048 -0.0397553 0.87800002
-0.039832048 -0.0397553 0.87800002
-0.10906854 -0.02015896 0.83700001
-0.10906854 -0.02015896 0.83700001
-0.041527029 -0.0397553 0.87800002
-0.041527029 -0.0397553 0.87800002
-0.09096428 -0.023719652 0.84899998
-0.09096428 -0.023719652 0.84899998
-0.053209461 -0.041305397 0.875
-0.053209461 -0.041305397 0.875
-0.14996815 -0.035170518 0.84899998
-0.14996815 -0.035170518 0.84899998
-0.14797974 -0.035087667 0.847
-0.14797974 -0.035087667 0.847
-0.1463446 -0.035087667 0.847
-0.1463446 -0.035087667 0.847
-0.15249999 -0.038668592 0.85399997
-0.15249999 -0.038668592 0.85399997
-0.044916991 -0.043138728 0.87800002
-0.044916991 -0.043138728 0.87800002
-0.14996815 -0.036806356 0.84899998
-0.14996815 -0.036806356 0.84899998
-0.15744594 -0.038668592 0.85399997
-0.15744594 -0.038668592 0.85399997
-0.15360714 -0.036893062 0.85100001
-0.15360714 -0.036893062 0.85100001
-0.05955502 -0.034324665 0.86900002
-0.05955502 -0.034324665 0.86900002
-0.062548265 -0.032462429 0.86400002
-0.062548265 -0.032462429 0.86400002
-0.061232626 -0.034324665 0.86900002
-0.061232626 -0.034324665 0.86900002
-0.11041988 -0.018501926 0.83499998
-0.11041988 -0.018501926 0.83499998
-0.10880791 -0.018501926 0.83499998
-0.10880791 -0.018501926 0.83499998
-0.11894112 -0.016731214 0.82700002
-0.11894112 -0.016731214 0.82700002
-0.11762838 -0.016771676 0.829
-0.11762838 -0.016771676 0.829
-0.11497973 -0.0168526 0.833
-0.11497973 -0.0168526 0.833
-0.11364382 -0.016893063 0.83499998
-0.11364382 -0.016893063 0.83499998
-0.11203185 -0.016893063 0.83499998
-0.11203185 -0.016893063 0.83499998
-0.038223937 -0.041541427 0.88
-0.038223937 -0.041541427 0.88
-0.1085473 -0.015247592 0.833
-0.1085473 -0.015247592 0.833
-0.11337163 -0.013642582 0.833
-0.11337163 -0.013642582 0.833
-0.15579729 -0.038668592 0.85399997
-0.15579729 -0.038668592 0.85399997
-0.15196429 -0.036893062 0.85100001
-0.15196429 -0.036893062 0.85100001
-0.036608111 -0.043335263 0.88200003
-0.036608111 -0.043335263 0.88200003
-0.039922781 -0.041541427 0.88
-0.039922781 -0.041541427 0.88
-0.048306949 -0.043138728 0.87800002
-0.048306949 -0.043138728 0.87800002
-0.12883107 -0.018368978 0.829
-0.12883107 -0.018368978 0.829
-0.056458496 -0.041210983 0.87300003
-0.056458496 -0.041210983 0.87300003
-0.058143824 -0.039528903 0.87300003
-0.058143824 -0.039528903 0.87300003
-0.13621138 -0.021719653 0.83499998
-0.13621138 -0.021719653 0.83499998
-0.13459942 -0.02011079 0.83499998
-0.13459942 -0.02011079 0.83499998
-0.033390928 -0.046999037 0.88700002
-0.033390928 -0.046999037 0.88700002
-0.16929731 -0.04578035 0.86400002
-0.16929731 -0.04578035 0.86400002
-0.16724131 -0.044013485 0.86199999
-0.16724131 -0.044013485 0.86199999
-0.16519305 -0.042254336 0.86000001
-0.16519305 -0.042254336 0.86000001
-0.14961487 -0.033455685 0.847
-0.14961487 -0.033455685 0.847
-0.077021234 -0.032236993 0.85799998
-0.077021234 -0.032236993 0.85799998
-0.16730598 -0.051185936 0.87099999
-0.16730598 -0.051185936 0.87099999
-0.064067565 -0.032387283 0.86199999
-0.064067565 -0.032387283 0.86199999
-0.059692085 -0.037760116 0.87099999
-0.059692085 -0.037760116 0.87099999
-0.12723069 -0.018368978 0.829
-0.12723069 -0.018368978 0.829
-0.035024133 -0.045187861 0.88499999
-0.035024133 -0.045187861 0.88499999
-0.031678572 -0.046999037 0.88700002
-0.031678572 -0.046999037 0.88700002
-0.12502412 -0.013511561 0.82499999
-0.12502412 -0.013511561 0.82499999
-0.13782336 -0.021719653 0.83499998
-0.13782336 -0.021719653 0.83499998
-0.15414864 -0.038668592 0.85399997
-0.15414864 -0.038668592 0.85399997
-0.046452701 -0.036247592 0.875
-0.046452701 -0.036247592 0.875
-0.051402513 -0.034482662 0.87300003
-0.051402513 -0.034482662 0.87300003
-0.054773167 -0.039528903 0.87300003
-0.054773167 -0.039528903 0.87300003
-0.12661679 -0.013511561 0.82499999
-0.12661679 -0.013511561 0.82499999
-0.10745271 -0.018546242 0.83700001
-0.10745271 -0.018546242 0.83700001
-0.05632915 -0.037760116 0.87099999
-0.05632915 -0.037760116 0.87099999
-0.059417952 -0.032575145 0.86699998
-0.059417952 -0.032575145 0.86699998
-0.10719594 -0.0152842 0.83499998
-0.10719594 -0.0152842 0.83499998
-0.10608976 -0.015357418 0.83899999
-0.10608976 -0.015357418 0.83899999
-0.13380116 -0.070699424 0.90600002
-0.13380116 -0.070699424 0.90600002
-0.13205212 -0.070699424 0.90600002
-0.13205212 -0.070699424 0.90600002
-0.14334266 -0.021823699 0.83899999
-0.14334266 -0.021823699 0.83899999
-0.16929731 -0.044115607 0.86400002
-0.16929731 -0.044115607 0.86400002
-0.16724131 -0.042352602 0.86199999
-0.16724131 -0.042352602 0.86199999
-0.16519305 -0.040597305 0.86000001
-0.16519305 -0.040597305 0.86000001
-0.1256303 -0.018368978 0.829
-0.1256303 -0.018368978 0.829
-0.051402513 -0.036164742 0.87300003
-0.051402513 -0.036164742 0.87300003
-0.17403185 -0.051185936 0.87099999
-0.17403185 -0.051185936 0.87099999
-0.11894112 -0.015137766 0.82700002
-0.11894112 -0.015137766 0.82700002
-0.16929731 -0.047445089 0.86400002
-0.16929731 -0.047445089 0.86400002
-0.16762935 -0.04578035 0.86400002
-0.16762935 -0.04578035 0.86400002
-0.16557722 -0.044013485 0.86199999
-0.16557722 -0.044013485 0.86199999
-0.16353282 -0.042254336 0.86000001
-0.16353282 -0.042254336 0.86000001
-0.16149613 -0.040502891 0.85799998
-0.16149613 -0.040502891 0.85799998
-0.13043147 -0.018368978 0.829
-0.13043147 -0.018368978 0.829
-0.12053765 -0.016731214 0.82700002
-0.12053765 -0.016731214 0.82700002
-0.061091699 -0.032575145 0.86699998
-0.061091699 -0.032575145 0.86699998
-0.059692085 -0.036081888 0.87099999
-0.059692085 -0.036081888 0.87099999
-0.033315636 -0.045187861 0.88499999
-0.033315636 -0.045187861 0.88499999
-0.058010615 -0.037760116 0.87099999
-0.058010615 -0.037760116 0.87099999
-0.10770946 -0.020207129 0.83899999
-0.10770946 -0.020207129 0.83899999
-0.15652703 -0.040502891 0.85799998
-0.15652703 -0.040502891 0.85799998
-0.06573166 -0.030726397 0.86199999
-0.06573166 -0.030726397 0.86199999
-0.049717184 -0.036164742 0.87300003
-0.049717184 -0.036164742 0.87300003
-0.048141893 -0.036247592 0.875
-0.048141893 -0.036247592 0.875
-0.13943532 -0.021719653 0.83499998
-0.13943532 -0.021719653 0.83499998
-0.036608111 -0.041635841 0.88200003
-0.036608111 -0.041635841 0.88200003
-0.073880307 -0.030655107 0.86000001
-0.073880307 -0.030655107 0.86000001
-0.041527029 -0.038063586 0.87800002
-0.041527029 -0.038063586 0.87800002
-0.10447007 -0.015357418 0.83899999
-0.10447007 -0.015357418 0.83899999
-0.049717184 -0.034482662 0.87300003
-0.049717184 -0.034482662 0.87300003
-0.16821139 -0.049280345 0.86699998
-0.16821139 -0.049280345 0.86699998
-0.1659614 -0.04578035 0.86400002
-0.1659614 -0.04578035 0.86400002
-0.16391313 -0.044013485 0.86199999
-0.16391313 -0.044013485 0.86199999
-0.054773167 -0.034482662 0.87300003
-0.054773167 -0.034482662 0.87300003
-0.13684459 -0.068725437 0.903
-0.13684459 -0.068725437 0.903
-0.17027703 -0.051068403 0.86900002
-0.17027703 -0.051068403 0.86900002
-0.17155887 -0.049280345 0.86699998
-0.17155887 -0.049280345 0.86699998
-0.054773167 -0.036164742 0.87300003
-0.054773167 -0.036164742 0.87300003
-0.12053765 -0.015137766 0.82700002
-0.12053765 -0.015137766 0.82700002
-0.15515637 -0.064884394 0.898
-0.15515637 -0.064884394 0.898
-0.15253378 -0.065245666 0.903
-0.15253378 -0.065245666 0.903
-0.15862355 -0.063154146 0.898
-0.15862355 -0.063154146 0.898
-0.13235039 -0.018413294 0.83099997
-0.13235039 -0.018413294 0.83099997
-0.038223937 -0.039845858 0.88
-0.038223937 -0.039845858 0.88
-0.12980212 -0.013511561 0.82499999
-0.12980212 -0.013511561 0.82499999
-0.054773167 -0.037846822 0.87300003
-0.054773167 -0.037846822 0.87300003
-0.16988513 -0.049280345 0.86699998
-0.16988513 -0.049280345 0.86699998
-0.16762935 -0.047445089 0.86400002
-0.16762935 -0.047445089 0.86400002
-0.12213417 -0.016731214 0.82700002
-0.12213417 -0.016731214 0.82700002
-0.12502412 -0.015101156 0.82499999
-0.12502412 -0.015101156 0.82499999
-0.13943532 -0.02011079 0.83499998
-0.13943532 -0.02011079 0.83499998
-0.1237307 -0.016731214 0.82700002
-0.1237307 -0.016731214 0.82700002
-0.056458496 -0.039528903 0.87300003
-0.056458496 -0.039528903 0.87300003
-0.10471912 -0.017014451 0.84100002
-0.10471912 -0.017014451 0.84100002
-0.1101554 -0.015247592 0.833
-0.1101554 -0.015247592 0.833
-0.10608976 -0.016973989 0.83899999
-0.10608976 -0.016973989 0.83899999
-0.031607144 -0.045187861 0.88499999
-0.031607144 -0.045187861 0.88499999
-0.053087838 -0.034482662 0.87300003
-0.053087838 -0.034482662 0.87300003
