# .PCD v0.7 - Point Cloud Data file format
VERSION 0.7
FIELDS x y z
SIZE 4 4 4
TYPE F F F
COUNT 1 1 1
WIDTH 1472
HEIGHT 1
VIEWPOINT 0 0 0 1 0 0 0
POINTS 1472
DATA ascii
0.28045365 0.19034104 0.89399999
0.18390541 0.18185934 0.87800002
0.18390541 0.18185934 0.87800002
0.18390541 0.18355106 0.87800002
0.18390541 0.18355106 0.87800002
0.18560039 0.18355106 0.87800002
0.18560039 0.18355106 0.87800002
0.18390541 0.18524277 0.87800002
0.18390541 0.18524277 0.87800002
0.18560039 0.18524277 0.87800002
0.18560039 0.18524277 0.87800002
0.18560039 0.1869345 0.87800002
0.18560039 0.1869345 0.87800002
0.18560039 0.18862621 0.87800002
0.18560039 0.18862621 0.87800002
0.18729538 0.19031793 0.87800002
0.18729538 0.19031793 0.87800002
0.19376352 0.18166956 0.86900002
0.19376352 0.18166956 0.86900002
0.1996139 0.19753371 0.88
0.1996139 0.19753371 0.88
0.20131274 0.19753371 0.88
0.20131274 0.19753371 0.88
0.20301159 0.19753371 0.88
0.20301159 0.19753371 0.88
0.1940753 0.19708478 0.87800002
0.1940753 0.19708478 0.87800002
0.19175676 0.17315993 0.86000001
0.19175676 0.17315993 0.86000001
0.18931274 0.17729481 0.86400002
0.18931274 0.17729481 0.86400002
0.31863803 0.13677552 0.87099999
0.31863803 0.13677552 0.87099999
0.27271044 0.14067052 0.86400002
0.27271044 0.14067052 0.86400002
0.3203195 0.13677552 0.87099999
0.3203195 0.13677552 0.87099999
0.18959942 0.18923411 0.87300003
0.18959942 0.18923411 0.87300003
0.19003378 0.19135356 0.875
0.19003378 0.19135356 0.875
0.3244257 0.1370896 0.87300003
0.3244257 0.1370896 0.87300003
0.32611102 0.1370896 0.87300003
0.32611102 0.1370896 0.87300003
0.32860136 0.18355781 0.903
0.32860136 0.18355781 0.903
0.3193697 0.13036127 0.87300003
0.3193697 0.13036127 0.87300003
0.32105502 0.13036127 0.87300003
0.32105502 0.13036127 0.87300003
0.3139585 0.19009538 0.90100002
0.3139585 0.19009538 0.90100002
0.31569788 0.19009538 0.90100002
0.31569788 0.19009538 0.90100002
0.21028379 0.19628324 0.88200003
0.21028379 0.19628324 0.88200003
0.21150579 0.19583815 0.88
0.21150579 0.19583815 0.88
0.20517568 0.19798267 0.88200003
0.20517568 0.19798267 0.88200003
0.20640926 0.19753371 0.88
0.20640926 0.19753371 0.88
0.20810811 0.19753371 0.88
0.20810811 0.19753371 0.88
0.21028379 0.19798267 0.88200003
0.21028379 0.19798267 0.88200003
0.3193697 0.13204336 0.87300003
0.3193697 0.13204336 0.87300003
0.32274035 0.13204336 0.87300003
0.32274035 0.13204336 0.87300003
0.33023649 0.12728806 0.875
0.33023649 0.12728806 0.875
0.33192569 0.12728806 0.875
0.33192569 0.12728806 0.875
0.3268581 0.12897399 0.875
0.3268581 0.12897399 0.875
0.2337365 0.20081407 0.88700002
0.2337365 0.20081407 0.88700002
0.23597974 0.20126686 0.889
0.23597974 0.20126686 0.889
0.23769595 0.20126686 0.889
0.23769595 0.20126686 0.889
0.19003378 0.19303949 0.875
0.19003378 0.19303949 0.875
0.1866554 0.18798169 0.875
0.1866554 0.18798169 0.875
0.19791506 0.19922929 0.88
0.19791506 0.19922929 0.88
0.33136874 0.13618305 0.87800002
0.33136874 0.13618305 0.87800002
0.32269692 0.18940462 0.90600002
0.32269692 0.18940462 0.90600002
0.1866554 0.1829239 0.875
0.1866554 0.1829239 0.875
0.1866554 0.18460983 0.875
0.1866554 0.18460983 0.875
0.1866554 0.18629576 0.875
0.1866554 0.18629576 0.875
0.1883446 0.18966763 0.875
0.1883446 0.18966763 0.875
0.1883446 0.19135356 0.875
0.1883446 0.19135356 0.875
0.31814188 0.19051734 0.903
0.31814188 0.19051734 0.903
0.31988513 0.19051734 0.903
0.31988513 0.19051734 0.903
0.32269692 0.19115029 0.90600002
0.32269692 0.19115029 0.90600002
0.32444596 0.19115029 0.90600002
0.32444596 0.19115029 0.90600002
0.19238031 0.19539307 0.87800002
0.19238031 0.19539307 0.87800002
0.1866554 0.18123795 0.875
0.1866554 0.18123795 0.875
0.1879141 0.18586995 0.87300003
0.1879141 0.18586995 0.87300003
0.1879141 0.18755203 0.87300003
0.1879141 0.18755203 0.87300003
0.21320464 0.19583815 0.88
0.21320464 0.19583815 0.88
0.19208591 0.17999519 0.86900002
0.19208591 0.17999519 0.86900002
0.19208591 0.18166956 0.86900002
0.19208591 0.18166956 0.86900002
0.28627029 0.19249326 0.89600003
0.28627029 0.19249326 0.89600003
0.18764479 0.17729481 0.86400002
0.18764479 0.17729481 0.86400002
0.32347974 0.13065992 0.875
0.32347974 0.13065992 0.875
0.32444596 0.18940462 0.90600002
0.32444596 0.18940462 0.90600002
0.326195 0.18940462 0.90600002
0.326195 0.18940462 0.90600002
0.33192569 0.12897399 0.875
0.33192569 0.12897399 0.875
0.33361486 0.12897399 0.875
0.33361486 0.12897399 0.875
0.32516891 0.13065992 0.875
0.32516891 0.13065992 0.875
0.3268581 0.13065992 0.875
0.3268581 0.13065992 0.875
0.32779634 0.13036127 0.87300003
0.32779634 0.13036127 0.87300003
0.32948166 0.13036127 0.87300003
0.32948166 0.13036127 0.87300003
0.32105502 0.13204336 0.87300003
0.32105502 0.13204336 0.87300003
0.32274035 0.1370896 0.87300003
0.32274035 0.1370896 0.87300003
0.18560039 0.18185934 0.87800002
0.18560039 0.18185934 0.87800002
0.2325473 0.19955395 0.889
0.2325473 0.19955395 0.889
0.18748359 0.17873122 0.87099999
0.18748359 0.17873122 0.87099999
0.18748359 0.18040945 0.87099999
0.18748359 0.18040945 0.87099999
0.18748359 0.18208766 0.87099999
0.18748359 0.18208766 0.87099999
0.18916506 0.18208766 0.87099999
0.18916506 0.18208766 0.87099999
0.18748359 0.18376589 0.87099999
0.18748359 0.18376589 0.87099999
0.18916506 0.18376589 0.87099999
0.18916506 0.18376589 0.87099999
0.18916506 0.18544412 0.87099999
0.18916506 0.18544412 0.87099999
0.18916506 0.18712234 0.87099999
0.18916506 0.18712234 0.87099999
0.3139585 0.19183141 0.90100002
0.3139585 0.19183141 0.90100002
0.27182433 0.19206358 0.89399999
0.27182433 0.19206358 0.89399999
0.27355018 0.19206358 0.89399999
0.27355018 0.19206358 0.89399999
0.2758919 0.19249326 0.89600003
0.2758919 0.19249326 0.89600003
0.27762163 0.19249326 0.89600003
0.27762163 0.19249326 0.89600003
0.2170946 0.19628324 0.88200003
0.2170946 0.19628324 0.88200003
0.19238031 0.19708478 0.87800002
0.19238031 0.19708478 0.87800002
0.26575193 0.19485259 0.89099997
0.26575193 0.19485259 0.89099997
0.22688708 0.20252313 0.88700002
0.22688708 0.20252313 0.88700002
0.22859943 0.20252313 0.88700002
0.22859943 0.20252313 0.88700002
0.23031178 0.20252313 0.88700002
0.23031178 0.20252313 0.88700002
0.3285473 0.13571772 0.875
0.3285473 0.13571772 0.875
0.27009845 0.19378613 0.89399999
0.27009845 0.19378613 0.89399999
0.27182433 0.19378613 0.89399999
0.27182433 0.19378613 0.89399999
0.27416217 0.19421966 0.89600003
0.27416217 0.19421966 0.89600003
0.18729538 0.19200964 0.87800002
0.18729538 0.19200964 0.87800002
0.2153919 0.19628324 0.88200003
0.2153919 0.19628324 0.88200003
0.267472 0.19141906 0.89099997
0.267472 0.19141906 0.89099997
0.26919207 0.19141906 0.89099997
0.26919207 0.19141906 0.89099997
0.267472 0.19313583 0.89099997
0.267472 0.19313583 0.89099997
0.21783301 0.19865607 0.88499999
0.21783301 0.19865607 0.88499999
0.2195415 0.19865607 0.88499999
0.2195415 0.19865607 0.88499999
0.22125 0.19865607 0.88499999
0.22125 0.19865607 0.88499999
0.22346236 0.19910501 0.88700002
0.22346236 0.19910501 0.88700002
0.22517471 0.19910501 0.88700002
0.22517471 0.19910501 0.88700002
0.22688708 0.19910501 0.88700002
0.22688708 0.19910501 0.88700002
0.22859943 0.19910501 0.88700002
0.22859943 0.19910501 0.88700002
0.23031178 0.19910501 0.88700002
0.23031178 0.19910501 0.88700002
0.326195 0.18765897 0.90600002
0.326195 0.18765897 0.90600002
0.28108108 0.19249326 0.89600003
0.28108108 0.19249326 0.89600003
0.20006758 0.19968209 0.88200003
0.20006758 0.19968209 0.88200003
0.20177028 0.19968209 0.88200003
0.20177028 0.19968209 0.88200003
0.32274035 0.13540752 0.87300003
0.32274035 0.13540752 0.87300003
0.27935135 0.19249326 0.89600003
0.27935135 0.19249326 0.89600003
0.19068533 0.19539307 0.87800002
0.19068533 0.19539307 0.87800002
0.2195415 0.20036127 0.88499999
0.2195415 0.20036127 0.88499999
0.22125 0.20036127 0.88499999
0.22125 0.20036127 0.88499999
0.22346236 0.20081407 0.88700002
0.22346236 0.20081407 0.88700002
0.22517471 0.20081407 0.88700002
0.22517471 0.20081407 0.88700002
0.3244257 0.13540752 0.87300003
0.3244257 0.13540752 0.87300003
0.32611102 0.13540752 0.87300003
0.32611102 0.13540752 0.87300003
0.3285473 0.12897399 0.875
0.3285473 0.12897399 0.875
0.33023649 0.12897399 0.875
0.33023649 0.12897399 0.875
0.23202413 0.20081407 0.88700002
0.23202413 0.20081407 0.88700002
0.22859943 0.20081407 0.88700002
0.22859943 0.20081407 0.88700002
0.23031178 0.20081407 0.88700002
0.23031178 0.20081407 0.88700002
0.326195 0.19115029 0.90600002
0.326195 0.19115029 0.90600002
0.32860136 0.18529768 0.903
0.32860136 0.18529768 0.903
0.18899035 0.19370136 0.87800002
0.18899035 0.19370136 0.87800002
0.22688708 0.20081407 0.88700002
0.22688708 0.20081407 0.88700002
0.32274035 0.13372543 0.87300003
0.32274035 0.13372543 0.87300003
0.3244257 0.13372543 0.87300003
0.3244257 0.13372543 0.87300003
0.32611102 0.13372543 0.87300003
0.32611102 0.13372543 0.87300003
0.32779634 0.13372543 0.87300003
0.32779634 0.13372543 0.87300003
0.33144209 0.18416764 0.90600002
0.33144209 0.18416764 0.90600002
0.2119865 0.19798267 0.88200003
0.2119865 0.19798267 0.88200003
0.21368919 0.19798267 0.88200003
0.21368919 0.19798267 0.88200003
0.21612452 0.19865607 0.88499999
0.21612452 0.19865607 0.88499999
0.3244257 0.13204336 0.87300003
0.3244257 0.13204336 0.87300003
0.32611102 0.13204336 0.87300003
0.32611102 0.13204336 0.87300003
0.32794401 0.18765897 0.90600002
0.32794401 0.18765897 0.90600002
0.33116701 0.13372543 0.87300003
0.33116701 0.13372543 0.87300003
0.32948166 0.13372543 0.87300003
0.32948166 0.13372543 0.87300003
0.32969305 0.18765897 0.90600002
0.32969305 0.18765897 0.90600002
0.32794401 0.18940462 0.90600002
0.32794401 0.18940462 0.90600002
0.21783301 0.20036127 0.88499999
0.21783301 0.20036127 0.88499999
0.32779634 0.13204336 0.87300003
0.32779634 0.13204336 0.87300003
0.32948166 0.13204336 0.87300003
0.32948166 0.13204336 0.87300003
0.33192569 0.13065992 0.875
0.33192569 0.13065992 0.875
0.33116701 0.13204336 0.87300003
0.33116701 0.13204336 0.87300003
0.23824325 0.13504817 0.86000001
0.23990348 0.13504817 0.86000001
0.24156371 0.13504817 0.86000001
0.24322394 0.13504817 0.86000001
0.24488418 0.13504817 0.86000001
0.24654441 0.13504817 0.86000001
0.24820463 0.13504817 0.86000001
0.25044593 0.13536224 0.86199999
0.25211003 0.13536224 0.86199999
0.25377414 0.13536224 0.86199999
0.25543821 0.13536224 0.86199999
0.25710231 0.13536224 0.86199999
0.25876641 0.13536224 0.86199999
0.26043049 0.13536224 0.86199999
0.26209459 0.13536224 0.86199999
0.26375869 0.13536224 0.86199999
0.26542279 0.13536224 0.86199999
0.26708686 0.13536224 0.86199999
0.26875097 0.13536224 0.86199999
0.27041507 0.13536224 0.86199999
0.27271044 0.13567631 0.86400002
0.23106371 0.13638727 0.85799998
0.23326255 0.1367052 0.86000001
0.23492278 0.1367052 0.86000001
0.23658301 0.1367052 0.86000001
0.23824325 0.1367052 0.86000001
0.23990348 0.1367052 0.86000001
0.24156371 0.1367052 0.86000001
0.24322394 0.1367052 0.86000001
0.24488418 0.1367052 0.86000001
0.24654441 0.1367052 0.86000001
0.24820463 0.1367052 0.86000001
0.25044593 0.13702312 0.86199999
0.25211003 0.13702312 0.86199999
0.25377414 0.13702312 0.86199999
0.25543821 0.13702312 0.86199999
0.214 0.13771869 0.85600001
0.21565251 0.13771869 0.85600001
0.21730502 0.13771869 0.85600001
0.21895753 0.13771869 0.85600001
0.22061004 0.13771869 0.85600001
0.22278185 0.13804045 0.85799998
0.22443822 0.13804045 0.85799998
0.22609459 0.13804045 0.85799998
0.22775096 0.13804045 0.85799998
0.22940733 0.13804045 0.85799998
0.23106371 0.13804045 0.85799998
0.23272008 0.13804045 0.85799998
0.23437645 0.13804045 0.85799998
0.23603281 0.13804045 0.85799998
0.23768918 0.13804045 0.85799998
0.23934555 0.13804045 0.85799998
0.24156371 0.13836224 0.86000001
0.24322394 0.13836224 0.86000001
0.24488418 0.13836224 0.86000001
0.24654441 0.13836224 0.86000001
0.24820463 0.13836224 0.86000001
0.24986488 0.13836224 0.86000001
0.2515251 0.13836224 0.86000001
0.25318533 0.13836224 0.86000001
0.25543821 0.138684 0.86199999
0.25710231 0.138684 0.86199999
0.25876641 0.138684 0.86199999
0.26043049 0.138684 0.86199999
0.26209459 0.138684 0.86199999
0.26375869 0.138684 0.86199999
0.26542279 0.138684 0.86199999
0.26708686 0.138684 0.86199999
0.26875097 0.138684 0.86199999
0.27041507 0.138684 0.86199999
0.21020269 0.13904238 0.85399997
0.21185134 0.13904238 0.85399997
0.21349999 0.13904238 0.85399997
0.21514864 0.13904238 0.85399997
0.21679729 0.13904238 0.85399997
0.21844594 0.13904238 0.85399997
0.22061004 0.13936801 0.85600001
0.22226255 0.13936801 0.85600001
0.22391506 0.13936801 0.85600001
0.22556756 0.13936801 0.85600001
0.22722007 0.13936801 0.85600001
0.22940733 0.13969363 0.85799998
0.23106371 0.13969363 0.85799998
0.23272008 0.13969363 0.85799998
0.23437645 0.13969363 0.85799998
0.23603281 0.13969363 0.85799998
0.23768918 0.13969363 0.85799998
0.23934555 0.13969363 0.85799998
0.24156371 0.14001927 0.86000001
0.24322394 0.14001927 0.86000001
0.24488418 0.14001927 0.86000001
0.24654441 0.14001927 0.86000001
0.24820463 0.14001927 0.86000001
0.24986488 0.14001927 0.86000001
0.2515251 0.14001927 0.86000001
0.25318533 0.14001927 0.86000001
0.25484556 0.14001927 0.86000001
0.25710231 0.14034489 0.86199999
0.25876641 0.14034489 0.86199999
0.26043049 0.14034489 0.86199999
0.26209459 0.14034489 0.86199999
0.26375869 0.14034489 0.86199999
0.26542279 0.14034489 0.86199999
0.26708686 0.14034489 0.86199999
0.26875097 0.14034489 0.86199999
0.20690539 0.14068785 0.85399997
0.20855404 0.14068785 0.85399997
0.21020269 0.14068785 0.85399997
0.21185134 0.14068785 0.85399997
0.21349999 0.14068785 0.85399997
0.21514864 0.14068785 0.85399997
0.21679729 0.14068785 0.85399997
0.21844594 0.14068785 0.85399997
0.22009459 0.14068785 0.85399997
0.22226255 0.14101735 0.85600001
0.22391506 0.14101735 0.85600001
0.22556756 0.14101735 0.85600001
0.22722007 0.14101735 0.85600001
0.22887258 0.14101735 0.85600001
0.23106371 0.14134681 0.85799998
0.23272008 0.14134681 0.85799998
0.23437645 0.14134681 0.85799998
0.23603281 0.14134681 0.85799998
0.23768918 0.14134681 0.85799998
0.23934555 0.14134681 0.85799998
0.24156371 0.14167631 0.86000001
0.24322394 0.14167631 0.86000001
0.24488418 0.14167631 0.86000001
0.24654441 0.14167631 0.86000001
0.24820463 0.14167631 0.86000001
0.24986488 0.14167631 0.86000001
0.2515251 0.14167631 0.86000001
0.25318533 0.14167631 0.86000001
0.25484556 0.14167631 0.86000001
0.25710231 0.14200577 0.86199999
0.25876641 0.14200577 0.86199999
0.26043049 0.14200577 0.86199999
0.26209459 0.14200577 0.86199999
0.26375869 0.14200577 0.86199999
0.26542279 0.14200577 0.86199999
0.26708686 0.14200577 0.86199999
0.26875097 0.14200577 0.86199999
0.20690539 0.14233333 0.85399997
0.20855404 0.14233333 0.85399997
0.21020269 0.14233333 0.85399997
0.21185134 0.14233333 0.85399997
0.21349999 0.14233333 0.85399997
0.21514864 0.14233333 0.85399997
0.21679729 0.14233333 0.85399997
0.21844594 0.14233333 0.85399997
0.22009459 0.14233333 0.85399997
0.22226255 0.14266667 0.85600001
0.22391506 0.14266667 0.85600001
0.22556756 0.14266667 0.85600001
0.22722007 0.14266667 0.85600001
0.22887258 0.14266667 0.85600001
0.23106371 0.14299999 0.85799998
0.23272008 0.14299999 0.85799998
0.23437645 0.14299999 0.85799998
0.23603281 0.14299999 0.85799998
0.23768918 0.14299999 0.85799998
0.23934555 0.14299999 0.85799998
0.24156371 0.14333333 0.86000001
0.24322394 0.14333333 0.86000001
0.24488418 0.14333333 0.86000001
0.24654441 0.14333333 0.86000001
0.24820463 0.14333333 0.86000001
0.24986488 0.14333333 0.86000001
0.2515251 0.14333333 0.86000001
0.25318533 0.14333333 0.86000001
0.25484556 0.14333333 0.86000001
0.25710231 0.14366667 0.86199999
0.25876641 0.14366667 0.86199999
0.26043049 0.14366667 0.86199999
0.26209459 0.14366667 0.86199999
0.26375869 0.14366667 0.86199999
0.26542279 0.14366667 0.86199999
0.26708686 0.14366667 0.86199999
0.26875097 0.14366667 0.86199999
0.20690539 0.1439788 0.85399997
0.20855404 0.1439788 0.85399997
0.21020269 0.1439788 0.85399997
0.21185134 0.1439788 0.85399997
0.21349999 0.1439788 0.85399997
0.21514864 0.1439788 0.85399997
0.21679729 0.1439788 0.85399997
0.21844594 0.1439788 0.85399997
0.22061004 0.14431599 0.85600001
0.22226255 0.14431599 0.85600001
0.22391506 0.14431599 0.85600001
0.22556756 0.14431599 0.85600001
0.22722007 0.14431599 0.85600001
0.22887258 0.14431599 0.85600001
0.23106371 0.14465317 0.85799998
0.23272008 0.14465317 0.85799998
0.23437645 0.14465317 0.85799998
0.23603281 0.14465317 0.85799998
0.23824325 0.14499037 0.86000001
0.23990348 0.14499037 0.86000001
0.24156371 0.14499037 0.86000001
0.24322394 0.14499037 0.86000001
0.24545367 0.14532755 0.86199999
0.24654441 0.14499037 0.86000001
0.24820463 0.14499037 0.86000001
0.24986488 0.14499037 0.86000001
0.25211003 0.14532755 0.86199999
0.25377414 0.14532755 0.86199999
0.25543821 0.14532755 0.86199999
0.25710231 0.14532755 0.86199999
0.25876641 0.14532755 0.86199999
0.26043049 0.14532755 0.86199999
0.26209459 0.14532755 0.86199999
0.26375869 0.14532755 0.86199999
0.26542279 0.14532755 0.86199999
0.26708686 0.14532755 0.86199999
0.20855404 0.14562428 0.85399997
0.21020269 0.14562428 0.85399997
0.21185134 0.14562428 0.85399997
0.21349999 0.14562428 0.85399997
0.21514864 0.14562428 0.85399997
0.21679729 0.14562428 0.85399997
0.21895753 0.14596532 0.85600001
0.22061004 0.14596532 0.85600001
0.22226255 0.14596532 0.85600001
0.22391506 0.14596532 0.85600001
0.22556756 0.14596532 0.85600001
0.22722007 0.14596532 0.85600001
0.22940733 0.14630635 0.85799998
0.23106371 0.14630635 0.85799998
0.23272008 0.14630635 0.85799998
0.23437645 0.14630635 0.85799998
0.23603281 0.14630635 0.85799998
0.20855404 0.14726974 0.85399997
0.21020269 0.14726974 0.85399997
0.21185134 0.14726974 0.85399997
0.21349999 0.14726974 0.85399997
0.21514864 0.14726974 0.85399997
0.22940733 0.13638727 0.85799998
0.22940733 0.13638727 0.85799998
0.23326255 0.13339114 0.86000001
0.23326255 0.13339114 0.86000001
0.23492278 0.13339114 0.86000001
0.23492278 0.13339114 0.86000001
0.22994208 0.13504817 0.86000001
0.22994208 0.13504817 0.86000001
0.23160233 0.13504817 0.86000001
0.23160233 0.13504817 0.86000001
0.23658301 0.13339114 0.86000001
0.23658301 0.13339114 0.86000001
0.23824325 0.13339114 0.86000001
0.23824325 0.13339114 0.86000001
0.23326255 0.13504817 0.86000001
0.23326255 0.13504817 0.86000001
0.23492278 0.13504817 0.86000001
0.23492278 0.13504817 0.86000001
0.22662163 0.13504817 0.86000001
0.22662163 0.13504817 0.86000001
0.22828186 0.13504817 0.86000001
0.22828186 0.13504817 0.86000001
0.21615636 0.13473409 0.85799998
0.21615636 0.13473409 0.85799998
0.21781273 0.13473409 0.85799998
0.21781273 0.13473409 0.85799998
0.2194691 0.13473409 0.85799998
0.2194691 0.13473409 0.85799998
0.22112548 0.13473409 0.85799998
0.22112548 0.13473409 0.85799998
0.2249614 0.13504817 0.86000001
0.2249614 0.13504817 0.86000001
0.23990348 0.13339114 0.86000001
0.23990348 0.13339114 0.86000001
0.24156371 0.13339114 0.86000001
0.24156371 0.13339114 0.86000001
0.24322394 0.13339114 0.86000001
0.24322394 0.13339114 0.86000001
0.24488418 0.13339114 0.86000001
0.24488418 0.13339114 0.86000001
0.24711776 0.13370135 0.86199999
0.24711776 0.13370135 0.86199999
0.24878184 0.13370135 0.86199999
0.24878184 0.13370135 0.86199999
0.25044593 0.13370135 0.86199999
0.25044593 0.13370135 0.86199999
0.25211003 0.13370135 0.86199999
0.25211003 0.13370135 0.86199999
0.25377414 0.13370135 0.86199999
0.25377414 0.13370135 0.86199999
0.25543821 0.13370135 0.86199999
0.25543821 0.13370135 0.86199999
0.25710231 0.13370135 0.86199999
0.25710231 0.13370135 0.86199999
0.25876641 0.13370135 0.86199999
0.25876641 0.13370135 0.86199999
0.26043049 0.13370135 0.86199999
0.26043049 0.13370135 0.86199999
0.26209459 0.13370135 0.86199999
0.26209459 0.13370135 0.86199999
0.26437065 0.13401157 0.86400002
0.26437065 0.13401157 0.86400002
0.26542279 0.13370135 0.86199999
0.26542279 0.13370135 0.86199999
0.26708686 0.13370135 0.86199999
0.26708686 0.13370135 0.86199999
0.26875097 0.13370135 0.86199999
0.26875097 0.13370135 0.86199999
0.23658301 0.13504817 0.86000001
0.23658301 0.13504817 0.86000001
0.20904247 0.13606937 0.85600001
0.20904247 0.13606937 0.85600001
0.214 0.13606937 0.85600001
0.214 0.13606937 0.85600001
0.21565251 0.13606937 0.85600001
0.21565251 0.13606937 0.85600001
0.21730502 0.13606937 0.85600001
0.21730502 0.13606937 0.85600001
0.21895753 0.13606937 0.85600001
0.21895753 0.13606937 0.85600001
0.22061004 0.13606937 0.85600001
0.22061004 0.13606937 0.85600001
0.22278185 0.13638727 0.85799998
0.22278185 0.13638727 0.85799998
0.22443822 0.13638727 0.85799998
0.22443822 0.13638727 0.85799998
0.22609459 0.13638727 0.85799998
0.22609459 0.13638727 0.85799998
0.22775096 0.13638727 0.85799998
0.22775096 0.13638727 0.85799998
0.21069498 0.13606937 0.85600001
0.21069498 0.13606937 0.85600001
0.21234749 0.13606937 0.85600001
0.21234749 0.13606937 0.85600001
0.20904247 0.13771869 0.85600001
0.20904247 0.13771869 0.85600001
0.20525675 0.13904238 0.85399997
0.20525675 0.13904238 0.85399997
0.20690539 0.13904238 0.85399997
0.20690539 0.13904238 0.85399997
0.20855404 0.13904238 0.85399997
0.20855404 0.13904238 0.85399997
0.20525675 0.13739692 0.85399997
0.20525675 0.13739692 0.85399997
0.20738997 0.13606937 0.85600001
0.20738997 0.13606937 0.85600001
0.20690539 0.13739692 0.85399997
0.20690539 0.13739692 0.85399997
0.20617858 0.14511272 0.85100001
0.20617858 0.14511272 0.85100001
0.21069498 0.13771869 0.85600001
0.21069498 0.13771869 0.85600001
0.21234749 0.13771869 0.85600001
0.21234749 0.13771869 0.85600001
0.24212548 0.13204046 0.86199999
0.24212548 0.13204046 0.86199999
0.24378957 0.13204046 0.86199999
0.24378957 0.13204046 0.86199999
0.24545367 0.13204046 0.86199999
0.24545367 0.13204046 0.86199999
0.24711776 0.13204046 0.86199999
0.24711776 0.13204046 0.86199999
0.24878184 0.13204046 0.86199999
0.24878184 0.13204046 0.86199999
0.25377414 0.13204046 0.86199999
0.25377414 0.13204046 0.86199999
0.25543821 0.13204046 0.86199999
0.25543821 0.13204046 0.86199999
0.25710231 0.13702312 0.86199999
0.25710231 0.13702312 0.86199999
0.25876641 0.13702312 0.86199999
0.25876641 0.13702312 0.86199999
0.26043049 0.13702312 0.86199999
0.26043049 0.13702312 0.86199999
0.26209459 0.13702312 0.86199999
0.26209459 0.13702312 0.86199999
0.26375869 0.13702312 0.86199999
0.26375869 0.13702312 0.86199999
0.26542279 0.13702312 0.86199999
0.26542279 0.13702312 0.86199999
0.26708686 0.13702312 0.86199999
0.26708686 0.13702312 0.86199999
0.26875097 0.13702312 0.86199999
0.26875097 0.13702312 0.86199999
0.27041507 0.13702312 0.86199999
0.27041507 0.13702312 0.86199999
0.27041507 0.14034489 0.86199999
0.27041507 0.14034489 0.86199999
0.27271044 0.13900578 0.86400002
0.27271044 0.13900578 0.86400002
0.27271044 0.13734104 0.86400002
0.27271044 0.13734104 0.86400002
0.28556952 0.06261079 0.97000003
0.28744209 0.06261079 0.97000003
0.28931469 0.06261079 0.97000003
0.29118726 0.06261079 0.97000003
0.29493245 0.06261079 0.97000003
0.29680502 0.06261079 0.97000003
0.29867762 0.06261079 0.97000003
0.30055019 0.06261079 0.97000003
0.27348551 0.064280346 0.96700001
0.27535233 0.064280346 0.96700001
0.27721912 0.064280346 0.96700001
0.27995175 0.064479768 0.97000003
0.28182432 0.064479768 0.97000003
0.28369692 0.064479768 0.97000003
0.28556952 0.064479768 0.97000003
0.28744209 0.064479768 0.97000003
0.28931469 0.064479768 0.97000003
0.29118726 0.064479768 0.97000003
0.29305986 0.064479768 0.97000003
0.29493245 0.064479768 0.97000003
0.29680502 0.064479768 0.97000003
0.29867762 0.064479768 0.97000003
0.30055019 0.064479768 0.97000003
0.30242279 0.064479768 0.97000003
0.25907144 0.065801546 0.96200001
0.26011485 0.065596342 0.95899999
0.26196623 0.065596342 0.95899999
0.26601833 0.066143543 0.96700001
0.26788515 0.066143543 0.96700001
0.26975194 0.066143543 0.96700001
0.27161872 0.066143543 0.96700001
0.27348551 0.066143543 0.96700001
0.27535233 0.066143543 0.96700001
0.27721912 0.066143543 0.96700001
0.2790859 0.066143543 0.96700001
0.28182432 0.066348746 0.97000003
0.28369692 0.066348746 0.97000003
0.2846863 0.066143543 0.96700001
0.28655308 0.066143543 0.96700001
0.28841987 0.066143543 0.96700001
0.29028669 0.066143543 0.96700001
0.29215348 0.066143543 0.96700001
0.29402027 0.066143543 0.96700001
0.29588708 0.066143543 0.96700001
0.29775387 0.066143543 0.96700001
0.29962066 0.066143543 0.96700001
0.30148745 0.066143543 0.96700001
0.30335426 0.066143543 0.96700001
0.30616796 0.066348746 0.97000003
0.22868243 0.068006746 0.96700001
0.22983398 0.067795761 0.96399999
0.23169498 0.067795761 0.96399999
0.23355599 0.067795761 0.96399999
0.23492858 0.067655109 0.96200001
0.23678572 0.067655109 0.96200001
0.23864286 0.067655109 0.96200001
0.2405 0.067655109 0.96200001
0.24235715 0.067655109 0.96200001
0.24421428 0.067655109 0.96200001
0.24607143 0.067655109 0.96200001
0.24844401 0.067795761 0.96399999
0.25030503 0.067795761 0.96399999
0.25216603 0.067795761 0.96399999
0.25350001 0.067655109 0.96200001
0.25535715 0.067655109 0.96200001
0.25721428 0.067655109 0.96200001
0.25907144 0.067655109 0.96200001
0.26011485 0.067444123 0.95899999
0.26196623 0.067444123 0.95899999
0.26464286 0.067655109 0.96200001
0.26705405 0.067795761 0.96399999
0.26975194 0.068006746 0.96700001
0.27161872 0.068006746 0.96700001
0.27348551 0.068006746 0.96700001
0.27535233 0.068006746 0.96700001
0.27721912 0.068006746 0.96700001
0.2790859 0.068006746 0.96700001
0.28095269 0.068006746 0.96700001
0.28281951 0.068006746 0.96700001
0.2846863 0.068006746 0.96700001
0.28655308 0.068006746 0.96700001
0.28841987 0.068006746 0.96700001
0.29028669 0.068006746 0.96700001
0.29215348 0.068006746 0.96700001
0.29402027 0.068006746 0.96700001
0.29588708 0.068006746 0.96700001
0.29683012 0.067795761 0.96399999
0.29869112 0.067795761 0.96399999
0.30055213 0.067795761 0.96399999
0.30241314 0.067795761 0.96399999
0.30364287 0.067655109 0.96200001
0.3055 0.067655109 0.96200001
0.22681564 0.069869943 0.96700001
0.22868243 0.069869943 0.96700001
0.22983398 0.069653176 0.96399999
0.23169498 0.069653176 0.96399999
0.23307143 0.069508672 0.96200001
0.23492858 0.069508672 0.96200001
0.23678572 0.069508672 0.96200001
0.23789865 0.069291905 0.95899999
0.23975 0.069291905 0.95899999
0.24160135 0.069291905 0.95899999
0.2434527 0.069291905 0.95899999
0.24530405 0.069291905 0.95899999
0.24792857 0.069508672 0.96200001
0.24978572 0.069508672 0.96200001
0.25164285 0.069508672 0.96200001
0.25270945 0.069291905 0.95899999
0.2545608 0.069291905 0.95899999
0.25641215 0.069291905 0.95899999
0.2582635 0.069291905 0.95899999
0.26092857 0.069508672 0.96200001
0.2627857 0.069508672 0.96200001
0.26464286 0.069508672 0.96200001
0.2665 0.069508672 0.96200001
0.26891506 0.069653176 0.96399999
0.27077606 0.069653176 0.96399999
0.27263707 0.069653176 0.96399999
0.27392858 0.069508672 0.96200001
0.27578571 0.069508672 0.96200001
0.27822009 0.069653176 0.96399999
0.28008106 0.069653176 0.96399999
0.28194207 0.069653176 0.96399999
0.28380308 0.069653176 0.96399999
0.28566408 0.069653176 0.96399999
0.28752509 0.069653176 0.96399999
0.28938609 0.069653176 0.96399999
0.2912471 0.069653176 0.96399999
0.29310811 0.069653176 0.96399999
0.29435715 0.069508672 0.96200001
0.29621428 0.069508672 0.96200001
0.29807144 0.069508672 0.96200001
0.29992858 0.069508672 0.96200001
0.30178571 0.069508672 0.96200001
0.30269593 0.069291905 0.95899999
0.30454728 0.069291905 0.95899999
0.19997489 0.070175335 0.94599998
0.22123648 0.071139693 0.95899999
0.22308783 0.071139693 0.95899999
0.22681564 0.071733139 0.96700001
0.22797297 0.071510598 0.96399999
0.22935715 0.071362235 0.96200001
0.23121428 0.071362235 0.96200001
0.23307143 0.071362235 0.96200001
0.23419595 0.071139693 0.95899999
0.2360473 0.071139693 0.95899999
0.23789865 0.071139693 0.95899999
0.23975 0.071139693 0.95899999
0.24160135 0.071139693 0.95899999
0.2434527 0.071139693 0.95899999
0.24530405 0.071139693 0.95899999
0.2471554 0.071139693 0.95899999
0.24900675 0.071139693 0.95899999
0.2508581 0.071139693 0.95899999
0.25270945 0.071139693 0.95899999
0.2545608 0.071139693 0.95899999
0.25641215 0.071139693 0.95899999
0.2582635 0.071139693 0.95899999
0.26011485 0.071139693 0.95899999
0.26196623 0.071139693 0.95899999
0.26381758 0.071139693 0.95899999
0.26566893 0.071139693 0.95899999
0.26752028 0.071139693 0.95899999
0.27021429 0.071362235 0.96200001
0.27122298 0.071139693 0.95899999
0.27307433 0.071139693 0.95899999
0.27492568 0.071139693 0.95899999
0.27677703 0.071139693 0.95899999
0.27862838 0.071139693 0.95899999
0.28047973 0.071139693 0.95899999
0.28233108 0.071139693 0.95899999
0.28418243 0.071139693 0.95899999
0.28603378 0.071139693 0.95899999
0.28788513 0.071139693 0.95899999
0.28973648 0.071139693 0.95899999
0.29158783 0.071139693 0.95899999
0.29343918 0.071139693 0.95899999
0.29529053 0.071139693 0.95899999
0.29714188 0.071139693 0.95899999
0.29899323 0.071139693 0.95899999
0.30084458 0.071139693 0.95899999
0.30269593 0.071139693 0.95899999
0.30454728 0.071139693 0.95899999
0.30544016 0.070917144 0.95599997
0.3072857 0.070917144 0.95599997
0.19997489 0.071998075 0.94599998
0.20180115 0.071998075 0.94599998
0.20362741 0.071998075 0.94599998
0.20545366 0.071998075 0.94599998
0.20727992 0.071998075 0.94599998
0.20954826 0.07215029 0.94800001
0.21271622 0.072606936 0.954
0.21455792 0.072606936 0.954
0.21639961 0.072606936 0.954
0.21869883 0.072759151 0.95599997
0.22123648 0.072987475 0.95899999
0.22308783 0.072987475 0.95899999
0.22493918 0.072987475 0.95899999
0.22679053 0.072987475 0.95899999
0.22864188 0.072987475 0.95899999
0.23049325 0.072987475 0.95899999
0.23161775 0.072759151 0.95599997
0.23346332 0.072759151 0.95599997
0.23530887 0.072759151 0.95599997
0.23715444 0.072759151 0.95599997
0.23899999 0.072759151 0.95599997
0.24084555 0.072759151 0.95599997
0.24269111 0.072759151 0.95599997
0.24453667 0.072759151 0.95599997
0.24638224 0.072759151 0.95599997
0.24822779 0.072759151 0.95599997
0.2508581 0.072987475 0.95899999
0.25191891 0.072759151 0.95599997
0.25376448 0.072759151 0.95599997
0.25561002 0.072759151 0.95599997
0.25745559 0.072759151 0.95599997
0.25930116 0.072759151 0.95599997
0.26114672 0.072759151 0.95599997
0.26299226 0.072759151 0.95599997
0.26483783 0.072759151 0.95599997
0.2666834 0.072759151 0.95599997
0.26852894 0.072759151 0.95599997
0.27037451 0.072759151 0.95599997
0.27222008 0.072759151 0.95599997
0.27406561 0.072759151 0.95599997
0.27591118 0.072759151 0.95599997
0.27775675 0.072759151 0.95599997
0.28047973 0.072987475 0.95899999
0.28233108 0.072987475 0.95899999
0.28329343 0.072759151 0.95599997
0.28513899 0.072759151 0.95599997
0.28788513 0.072987475 0.95899999
0.2888301 0.072759151 0.95599997
0.29067567 0.072759151 0.95599997
0.29252124 0.072759151 0.95599997
0.29436678 0.072759151 0.95599997
0.29621235 0.072759151 0.95599997
0.29805791 0.072759151 0.95599997
0.29990345 0.072759151 0.95599997
0.30174902 0.072759151 0.95599997
0.30359459 0.072759151 0.95599997
0.30544016 0.072759151 0.95599997
0.3072857 0.072759151 0.95599997
0.30913126 0.072759151 0.95599997
0.19997489 0.073820807 0.94599998
0.20180115 0.073820807 0.94599998
0.20362741 0.073820807 0.94599998
0.20545366 0.073820807 0.94599998
0.20727992 0.073820807 0.94599998
0.20954826 0.073976882 0.94800001
0.21137838 0.073976882 0.94800001
0.2132085 0.073976882 0.94800001
0.21639961 0.074445084 0.954
0.21869883 0.074601151 0.95599997
0.22123648 0.074835256 0.95899999
0.22308783 0.074835256 0.95899999
0.22493918 0.074835256 0.95899999
0.22679053 0.074835256 0.95899999
0.22792663 0.074601151 0.95599997
0.2297722 0.074601151 0.95599997
0.23161775 0.074601151 0.95599997
0.23346332 0.074601151 0.95599997
0.23530887 0.074601151 0.95599997
0.23715444 0.074601151 0.95599997
0.23899999 0.074601151 0.95599997
0.24034169 0.074445084 0.954
0.2421834 0.074445084 0.954
0.24453667 0.074601151 0.95599997
0.24638224 0.074601151 0.95599997
0.24822779 0.074601151 0.95599997
0.25007334 0.074601151 0.95599997
0.25191891 0.074601151 0.95599997
0.25376448 0.074601151 0.95599997
0.25561002 0.074601151 0.95599997
0.256917 0.074445084 0.954
0.25875869 0.074445084 0.954
0.26060039 0.074445084 0.954
0.26244208 0.074445084 0.954
0.26428378 0.074445084 0.954
0.26612547 0.074445084 0.954
0.26796719 0.074445084 0.954
0.26980889 0.074445084 0.954
0.27165058 0.074445084 0.954
0.27349228 0.074445084 0.954
0.27533397 0.074445084 0.954
0.27717566 0.074445084 0.954
0.27901736 0.074445084 0.954
0.28085908 0.074445084 0.954
0.28270078 0.074445084 0.954
0.28454247 0.074445084 0.954
0.28638417 0.074445084 0.954
0.28822586 0.074445084 0.954
0.29006755 0.074445084 0.954
0.29190928 0.074445084 0.954
0.29375097 0.074445084 0.954
0.29559267 0.074445084 0.954
0.29743436 0.074445084 0.954
0.29927605 0.074445084 0.954
0.30111775 0.074445084 0.954
0.30359459 0.074601151 0.95599997
0.30480117 0.074445084 0.954
0.30664286 0.074445084 0.954
0.30848455 0.074445084 0.954
0.19934073 0.075403661 0.94300002
0.20116121 0.075403661 0.94300002
0.20362741 0.075643547 0.94599998
0.20545366 0.075643547 0.94599998
0.20771815 0.075803466 0.94800001
0.20954826 0.075803466 0.94800001
0.21137838 0.075803466 0.94800001
0.2132085 0.075803466 0.94800001
0.21639961 0.076283239 0.954
0.21869883 0.076443158 0.95599997
0.22008301 0.076283239 0.954
0.22192471 0.076283239 0.954
0.2237664 0.076283239 0.954
0.22608107 0.076443158 0.95599997
0.2274498 0.076283239 0.954
0.2292915 0.076283239 0.954
0.23040636 0.076043352 0.95099998
0.23224227 0.076043352 0.95099998
0.23407818 0.076043352 0.95099998
0.23591408 0.076043352 0.95099998
0.2385 0.076283239 0.954
0.23958591 0.076043352 0.95099998
0.2414218 0.076043352 0.95099998
0.2440251 0.076283239 0.954
0.24586679 0.076283239 0.954
0.2477085 0.076283239 0.954
0.25007334 0.076443158 0.95599997
0.25191891 0.076443158 0.95599997
0.25323358 0.076283239 0.954
0.25507528 0.076283239 0.954
0.25610906 0.076043352 0.95099998
0.25794497 0.076043352 0.95099998
0.25978088 0.076043352 0.95099998
0.2616168 0.076043352 0.95099998
0.26345271 0.076043352 0.95099998
0.26528859 0.076043352 0.95099998
0.2671245 0.076043352 0.95099998
0.26896042 0.076043352 0.95099998
0.27079633 0.076043352 0.95099998
0.27263224 0.076043352 0.95099998
0.27446815 0.076043352 0.95099998
0.27630404 0.076043352 0.95099998
0.27813995 0.076043352 0.95099998
0.27997586 0.076043352 0.95099998
0.28181177 0.076043352 0.95099998
0.28364769 0.076043352 0.95099998
0.28548357 0.076043352 0.95099998
0.28731948 0.076043352 0.95099998
0.28915539 0.076043352 0.95099998
0.29099131 0.076043352 0.95099998
0.29282722 0.076043352 0.95099998
0.29466313 0.076043352 0.95099998
0.29649901 0.076043352 0.95099998
0.29927605 0.076283239 0.954
0.30111775 0.076283239 0.954
0.30295947 0.076283239 0.954
0.30384266 0.076043352 0.95099998
0.30567858 0.076043352 0.95099998
0.30654439 0.075803466 0.94800001
0.30837452 0.075803466 0.94800001
0.31020463 0.075803466 0.94800001
0.31203476 0.075803466 0.94800001
0.19689189 0.076974951 0.94
0.19870657 0.076974951 0.94
0.20116121 0.077220619 0.94300002
0.20362741 0.077466279 0.94599998
0.20545366 0.077466279 0.94599998
0.20727992 0.077466279 0.94599998
0.20910618 0.077466279 0.94599998
0.21093243 0.077466279 0.94599998
0.21275869 0.077466279 0.94599998
0.21503861 0.076974951 0.94
0.21685328 0.076974951 0.94
0.21936584 0.077220619 0.94300002
0.2211863 0.077220619 0.94300002
0.22300676 0.077220619 0.94300002
0.22554247 0.077466279 0.94599998
0.22736873 0.077466279 0.94599998
0.22919497 0.077466279 0.94599998
0.23150966 0.077630058 0.94800001
0.23333977 0.077630058 0.94800001
0.23516989 0.077630058 0.94800001
0.237 0.077630058 0.94800001
0.23883012 0.077630058 0.94800001
0.24066024 0.077630058 0.94800001
0.24325772 0.077875718 0.95099998
0.24509363 0.077875718 0.95099998
0.24692953 0.077875718 0.95099998
0.24955019 0.078121386 0.954
0.25139189 0.078121386 0.954
0.25243726 0.077875718 0.95099998
0.25347105 0.077630058 0.94800001
0.25530115 0.077630058 0.94800001
0.25713128 0.077630058 0.94800001
0.25896138 0.077630058 0.94800001
0.26079151 0.077630058 0.94800001
0.26262161 0.077630058 0.94800001
0.26445174 0.077630058 0.94800001
0.26628184 0.077630058 0.94800001
0.26811197 0.077630058 0.94800001
0.26994208 0.077630058 0.94800001
0.27177221 0.077630058 0.94800001
0.27360231 0.077630058 0.94800001
0.27543244 0.077630058 0.94800001
0.27726254 0.077630058 0.94800001
0.27909267 0.077630058 0.94800001
0.28092277 0.077630058 0.94800001
0.2827529 0.077630058 0.94800001
0.284583 0.077630058 0.94800001
0.28641313 0.077630058 0.94800001
0.28824323 0.077630058 0.94800001
0.29007336 0.077630058 0.94800001
0.29190347 0.077630058 0.94800001
0.2937336 0.077630058 0.94800001
0.2955637 0.077630058 0.94800001
0.29739383 0.077630058 0.94800001
0.29922393 0.077630058 0.94800001
0.30105406 0.077630058 0.94800001
0.30288416 0.077630058 0.94800001
0.30471429 0.077630058 0.94800001
0.30654439 0.077630058 0.94800001
0.30772394 0.077466279 0.94599998
0.3095502 0.077466279 0.94599998
0.31137645 0.077466279 0.94599998
0.31320271 0.077466279 0.94599998
0.19689189 0.078786127 0.94
0.19870657 0.078786127 0.94
0.20052123 0.078786127 0.94
0.20298167 0.079037577 0.94300002
0.20480213 0.079037577 0.94300002
0.20727992 0.079289019 0.94599998
0.20910618 0.079289019 0.94599998
0.21026352 0.079037577 0.94300002
0.21208398 0.079037577 0.94300002
0.21322393 0.078786127 0.94
0.21503861 0.078786127 0.94
0.21685328 0.078786127 0.94
0.21866795 0.078786127 0.94
0.22048262 0.078786127 0.94
0.2222973 0.078786127 0.94
0.22411197 0.078786127 0.94
0.22592664 0.078786127 0.94
0.22774132 0.078786127 0.94
0.23028861 0.079037577 0.94300002
0.23210908 0.079037577 0.94300002
0.23392954 0.079037577 0.94300002
0.23649999 0.079289019 0.94599998
0.23832625 0.079289019 0.94599998
0.24015251 0.079289019 0.94599998
0.24249035 0.07945665 0.94800001
0.24432047 0.07945665 0.94800001
0.24615058 0.07945665 0.94800001
0.2479807 0.07945665 0.94800001
0.24981081 0.07945665 0.94800001
0.25111005 0.079289019 0.94599998
0.25293627 0.079289019 0.94599998
0.25476253 0.079289019 0.94599998
0.25658879 0.079289019 0.94599998
0.25841504 0.079289019 0.94599998
0.2602413 0.079289019 0.94599998
0.26206756 0.079289019 0.94599998
0.26389381 0.079289019 0.94599998
0.26572007 0.079289019 0.94599998
0.26811197 0.07945665 0.94800001
0.26994208 0.07945665 0.94800001
0.27177221 0.07945665 0.94800001
0.27360231 0.07945665 0.94800001
0.27543244 0.07945665 0.94800001
0.27726254 0.07945665 0.94800001
0.27909267 0.07945665 0.94800001
0.28092277 0.07945665 0.94800001
0.2827529 0.07945665 0.94800001
0.2839826 0.079289019 0.94599998
0.28580886 0.079289019 0.94599998
0.28763512 0.079289019 0.94599998
0.28946137 0.079289019 0.94599998
0.29128763 0.079289019 0.94599998
0.29311389 0.079289019 0.94599998
0.29494014 0.079289019 0.94599998
0.2967664 0.079289019 0.94599998
0.29859266 0.079289019 0.94599998
0.30041891 0.079289019 0.94599998
0.30224517 0.079289019 0.94599998
0.30407143 0.079289019 0.94599998
0.30589768 0.079289019 0.94599998
0.30772394 0.079289019 0.94599998
0.3095502 0.079289019 0.94599998
0.31137645 0.079289019 0.94599998
0.31320271 0.079289019 0.94599998
0.19828379 0.080425821 0.93800002
0.2000946 0.080425821 0.93800002
0.20298167 0.080854528 0.94300002
0.20480213 0.080854528 0.94300002
0.20662259 0.080854528 0.94300002
0.20844306 0.080854528 0.94300002
0.20959459 0.080597304 0.94
0.21140927 0.080597304 0.94
0.21322393 0.080597304 0.94
0.21458109 0.080425821 0.93800002
0.21639189 0.080425821 0.93800002
0.21866795 0.080597304 0.94
0.22001351 0.080425821 0.93800002
0.22182433 0.080425821 0.93800002
0.22363514 0.080425821 0.93800002
0.22592664 0.080597304 0.94
0.22774132 0.080597304 0.94
0.22955598 0.080597304 0.94
0.23137066 0.080597304 0.94
0.23318532 0.080597304 0.94
0.235 0.080597304 0.94
0.23757046 0.080854528 0.94300002
0.23939092 0.080854528 0.94300002
0.2412114 0.080854528 0.94300002
0.24380502 0.081111751 0.94599998
0.24615058 0.081283242 0.94800001
0.24745752 0.081111751 0.94599998
0.24928378 0.081111751 0.94599998
0.2503137 0.080854528 0.94300002
0.25213417 0.080854528 0.94300002
0.25395465 0.080854528 0.94300002
0.25577509 0.080854528 0.94300002
0.25759557 0.080854528 0.94300002
0.25941601 0.080854528 0.94300002
0.26206756 0.081111751 0.94599998
0.26389381 0.081111751 0.94599998
0.26572007 0.081111751 0.94599998
0.26754633 0.081111751 0.94599998
0.26937258 0.081111751 0.94599998
0.27177221 0.081283242 0.94800001
0.27360231 0.081283242 0.94800001
0.27485135 0.081111751 0.94599998
0.27667761 0.081111751 0.94599998
0.27850387 0.081111751 0.94599998
0.28033012 0.081111751 0.94599998
0.28215638 0.081111751 0.94599998
0.28308204 0.080854528 0.94300002
0.28490251 0.080854528 0.94300002
0.28672299 0.080854528 0.94300002
0.28854343 0.080854528 0.94300002
0.29128763 0.081111751 0.94599998
0.29311389 0.081111751 0.94599998
0.29400483 0.080854528 0.94300002
0.2958253 0.080854528 0.94300002
0.29764575 0.080854528 0.94300002
0.29946622 0.080854528 0.94300002
0.3012867 0.080854528 0.94300002
0.30310714 0.080854528 0.94300002
0.30492762 0.080854528 0.94300002
0.30674806 0.080854528 0.94300002
0.30856854 0.080854528 0.94300002
0.31038901 0.080854528 0.94300002
0.31220946 0.080854528 0.94300002
0.19828379 0.082233146 0.93800002
0.2000946 0.082233146 0.93800002
0.20233591 0.08240848 0.94
0.20415057 0.08240848 0.94
0.20552704 0.082233146 0.93800002
0.20733784 0.082233146 0.93800002
0.20914866 0.082233146 0.93800002
0.21095946 0.082233146 0.93800002
0.21277027 0.082233146 0.93800002
0.21458109 0.082233146 0.93800002
0.21639189 0.082233146 0.93800002
0.21820271 0.082233146 0.93800002
0.22001351 0.082233146 0.93800002
0.22182433 0.082233146 0.93800002
0.22363514 0.082233146 0.93800002
0.22544596 0.082233146 0.93800002
0.22725676 0.082233146 0.93800002
0.22906758 0.082233146 0.93800002
0.23087838 0.082233146 0.93800002
0.2326892 0.082233146 0.93800002
0.23450001 0.082233146 0.93800002
0.23681468 0.08240848 0.94
0.23812163 0.082233146 0.93800002
0.23993243 0.082233146 0.93800002
0.24174325 0.082233146 0.93800002
0.24355406 0.082233146 0.93800002
0.24536487 0.082233146 0.93800002
0.2477027 0.08240848 0.94
0.24951738 0.08240848 0.94
0.25133204 0.08240848 0.94
0.25314671 0.08240848 0.94
0.2549614 0.08240848 0.94
0.25677606 0.08240848 0.94
0.25941601 0.082671486 0.94300002
0.26123649 0.082671486 0.94300002
0.26305696 0.082671486 0.94300002
0.26487741 0.082671486 0.94300002
0.26669788 0.082671486 0.94300002
0.26937258 0.082934491 0.94599998
0.27119884 0.082934491 0.94599998
0.2730251 0.082934491 0.94599998
0.27485135 0.082934491 0.94599998
0.27667761 0.082934491 0.94599998
0.27850387 0.082934491 0.94599998
0.27944112 0.082671486 0.94300002
0.28126159 0.082671486 0.94300002
0.28218147 0.08240848 0.94
0.28399613 0.08240848 0.94
0.28672299 0.082671486 0.94300002
0.28854343 0.082671486 0.94300002
0.29036391 0.082671486 0.94300002
0.29218438 0.082671486 0.94300002
0.29306951 0.08240848 0.94
0.29488418 0.08240848 0.94
0.29669884 0.08240848 0.94
0.29946622 0.082671486 0.94300002
0.3012867 0.082671486 0.94300002
0.30310714 0.082671486 0.94300002
0.30492762 0.082671486 0.94300002
0.30577219 0.08240848 0.94
0.30758688 0.08240848 0.94
0.30874324 0.082233146 0.93800002
0.31055406 0.082233146 0.93800002
0.19945464 0.083771676 0.935
0.20125966 0.083771676 0.935
0.20306467 0.083771676 0.935
0.20486969 0.083771676 0.935
0.20667471 0.083771676 0.935
0.20847973 0.083771676 0.935
0.21028475 0.083771676 0.935
0.21208976 0.083771676 0.935
0.21389478 0.083771676 0.935
0.21569981 0.083771676 0.935
0.21750483 0.083771676 0.935
0.21930985 0.083771676 0.935
0.22111486 0.083771676 0.935
0.22291988 0.083771676 0.935
0.2247249 0.083771676 0.935
0.22652993 0.083771676 0.935
0.22906758 0.084040463 0.93800002
0.23087838 0.084040463 0.93800002
0.2326892 0.084040463 0.93800002
0.23450001 0.084040463 0.93800002
0.23631081 0.084040463 0.93800002
0.23736005 0.083771676 0.935
0.23916505 0.083771676 0.935
0.24097008 0.083771676 0.935
0.2427751 0.083771676 0.935
0.24536487 0.084040463 0.93800002
0.24638514 0.083771676 0.935
0.24819015 0.083771676 0.935
0.2507973 0.084040463 0.93800002
0.25260812 0.084040463 0.93800002
0.25441894 0.084040463 0.93800002
0.25622973 0.084040463 0.93800002
0.25859073 0.084219649 0.94
0.26040539 0.084219649 0.94
0.26222008 0.084219649 0.94
0.26403475 0.084219649 0.94
0.26584941 0.084219649 0.94
0.2676641 0.084219649 0.94
0.2703388 0.084488444 0.94300002
0.27215928 0.084488444 0.94300002
0.27397972 0.084488444 0.94300002
0.2758002 0.084488444 0.94300002
0.27762067 0.084488444 0.94300002
0.27944112 0.084488444 0.94300002
0.28036681 0.084219649 0.94
0.28158107 0.084040463 0.93800002
0.28339189 0.084040463 0.93800002
0.2858108 0.084219649 0.94
0.28762549 0.084219649 0.94
0.28944016 0.084219649 0.94
0.29063514 0.084040463 0.93800002
0.29244596 0.084040463 0.93800002
0.29425678 0.084040463 0.93800002
0.29606757 0.084040463 0.93800002
0.29787838 0.084040463 0.93800002
0.2996892 0.084040463 0.93800002
0.30150002 0.084040463 0.93800002
0.30331081 0.084040463 0.93800002
0.30577219 0.084219649 0.94
0.30758688 0.084219649 0.94
0.30874324 0.084040463 0.93800002
0.31055406 0.084040463 0.93800002
0.31236488 0.084040463 0.93800002
0.20082916 0.085390173 0.93300003
0.20263031 0.085390173 0.93300003
0.20443147 0.085390173 0.93300003
0.20623264 0.085390173 0.93300003
0.20803379 0.085390173 0.93300003
0.20983495 0.085390173 0.93300003
0.21208976 0.085573219 0.935
0.21343726 0.085390173 0.93300003
0.21523842 0.085390173 0.93300003
0.21703959 0.085390173 0.93300003
0.21884073 0.085390173 0.93300003
0.2206419 0.085390173 0.93300003
0.22291988 0.085573219 0.935
0.2247249 0.085573219 0.935
0.22652993 0.085573219 0.935
0.22833495 0.085573219 0.935
0.23013996 0.085573219 0.935
0.23194498 0.085573219 0.935
0.23375 0.085573219 0.935
0.23555502 0.085573219 0.935
0.23685232 0.085390173 0.93300003
0.23865348 0.085390173 0.93300003
0.24097008 0.085573219 0.935
0.24147683 0.085115604 0.93000001
0.2432722 0.085115604 0.93000001
0.24638514 0.085573219 0.935
0.24819015 0.085573219 0.935
0.24999517 0.085573219 0.935
0.25180018 0.085573219 0.935
0.25360522 0.085573219 0.935
0.25541022 0.085573219 0.935
0.25721526 0.085573219 0.935
0.25985137 0.085847788 0.93800002
0.26166216 0.085847788 0.93800002
0.26347297 0.085847788 0.93800002
0.26528379 0.085847788 0.93800002
0.26709461 0.085847788 0.93800002
0.2689054 0.085847788 0.93800002
0.27071622 0.085847788 0.93800002
0.27252704 0.085847788 0.93800002
0.27433786 0.085847788 0.93800002
0.27614865 0.085847788 0.93800002
0.27795947 0.085847788 0.93800002
0.27977028 0.085847788 0.93800002
0.28158107 0.085847788 0.93800002
0.28339189 0.085847788 0.93800002
0.28520271 0.085847788 0.93800002
0.28701353 0.085847788 0.93800002
0.28882432 0.085847788 0.93800002
0.29063514 0.085847788 0.93800002
0.29151061 0.085573219 0.935
0.29331565 0.085573219 0.935
0.29512066 0.085573219 0.935
0.29692566 0.085573219 0.935
0.2987307 0.085573219 0.935
0.30053571 0.085573219 0.935
0.30234075 0.085573219 0.935
0.30512163 0.085847788 0.93800002
0.30693245 0.085847788 0.93800002
0.3077558 0.085573219 0.935
0.30956081 0.085573219 0.935
0.31069982 0.085390173 0.93300003
0.31250098 0.085390173 0.93300003
0.31497586 0.085573219 0.935
0.20018341 0.086907513 0.93000001
0.20197877 0.086907513 0.93000001
0.20377414 0.086907513 0.93000001
0.20556951 0.086907513 0.93000001
0.20736487 0.086907513 0.93000001
0.20916024 0.086907513 0.93000001
0.2109556 0.086907513 0.93000001
0.21275097 0.086907513 0.93000001
0.21454634 0.086907513 0.93000001
0.21703959 0.087187864 0.93300003
0.21884073 0.087187864 0.93300003
0.2206419 0.087187864 0.93300003
0.22244306 0.087187864 0.93300003
0.22424422 0.087187864 0.93300003
0.22604537 0.087187864 0.93300003
0.22784653 0.087187864 0.93300003
0.2296477 0.087187864 0.93300003
0.23144884 0.087187864 0.93300003
0.23325001 0.087187864 0.93300003
0.23505117 0.087187864 0.93300003
0.23609073 0.086907513 0.93000001
0.2378861 0.086907513 0.93000001
0.23968147 0.086907513 0.93000001
0.24147683 0.086907513 0.93000001
0.24274902 0.086720616 0.92799997
0.24454053 0.086720616 0.92799997
0.24686293 0.086907513 0.93000001
