# .PCD v0.7 - Point Cloud Data file format
VERSION 0.7
FIELDS x y z
SIZE 4 4 4
TYPE F F F
COUNT 1 1 1
WIDTH 247
HEIGHT 1
VIEWPOINT 0 0 0 1 0 0 0
POINTS 247
DATA ascii
0.26021621 -0.11642389 1.3279999
0.26277992 -0.11642389 1.3279999
0.26021621 -0.11386512 1.3279999
0.26277992 -0.11386512 1.3279999
0.26534361 -0.11386512 1.3279999
0.25278476 -0.11256359 1.3430001
0.25765249 -0.11130635 1.3279999
0.26021621 -0.11130635 1.3279999
0.26277992 -0.11130635 1.3279999
0.26534361 -0.11130635 1.3279999
0.25278476 -0.10997592 1.3430001
0.25347584 -0.10915703 1.3329999
0.25604922 -0.10915703 1.3329999
0.25765249 -0.10874759 1.3279999
0.26021621 -0.10874759 1.3279999
0.26277992 -0.10874759 1.3279999
0.26534361 -0.10874759 1.3279999
0.26790732 -0.10874759 1.3279999
0.27303475 -0.10874759 1.3279999
0.27559844 -0.10874759 1.3279999
0.27816215 -0.10874759 1.3279999
0.28072587 -0.10874759 1.3279999
0.28328955 -0.10874759 1.3279999
0.28585327 -0.10874759 1.3279999
0.25347584 -0.10658862 1.3329999
0.25604922 -0.10658862 1.3329999
0.25765249 -0.10618882 1.3279999
0.26021621 -0.10618882 1.3279999
0.26277992 -0.10618882 1.3279999
0.26534361 -0.10618882 1.3279999
0.26790732 -0.10618882 1.3279999
0.27047104 -0.10618882 1.3279999
0.27303475 -0.10618882 1.3279999
0.27559844 -0.10618882 1.3279999
0.27816215 -0.10618882 1.3279999
0.28072587 -0.10618882 1.3279999
0.28435618 -0.10658862 1.3329999
0.28692952 -0.10658862 1.3329999
0.28950289 -0.10658862 1.3329999
0.25347584 -0.10402023 1.3329999
0.25604922 -0.10402023 1.3329999
0.25765249 -0.10363005 1.3279999
0.26021621 -0.10363005 1.3279999
0.26277992 -0.10363005 1.3279999
0.26534361 -0.10363005 1.3279999
0.26790732 -0.10363005 1.3279999
0.27047104 -0.10363005 1.3279999
0.27303475 -0.10363005 1.3279999
0.27559844 -0.10363005 1.3279999
0.27816215 -0.10363005 1.3279999
0.28178281 -0.10402023 1.3329999
0.28435618 -0.10402023 1.3329999
0.28692952 -0.10402023 1.3329999
0.28950289 -0.10402023 1.3329999
0.25347584 -0.10145183 1.3329999
0.25604922 -0.10145183 1.3329999
0.25765249 -0.10107129 1.3279999
0.26021621 -0.10107129 1.3279999
0.26277992 -0.10107129 1.3279999
0.26534361 -0.10107129 1.3279999
0.26790732 -0.10107129 1.3279999
0.27047104 -0.10107129 1.3279999
0.27303475 -0.10107129 1.3279999
0.27559844 -0.10107129 1.3279999
0.27816215 -0.10107129 1.3279999
0.28178281 -0.10145183 1.3329999
0.28435618 -0.10145183 1.3329999
0.28692952 -0.10145183 1.3329999
0.28950289 -0.10145183 1.3329999
0.25347584 -0.098883428 1.3329999
0.25604922 -0.098883428 1.3329999
0.25862259 -0.098883428 1.3329999
0.26119593 -0.098883428 1.3329999
0.2637693 -0.098883428 1.3329999
0.26634264 -0.098883428 1.3329999
0.26891601 -0.098883428 1.3329999
0.27047104 -0.098512523 1.3279999
0.27303475 -0.098512523 1.3279999
0.27559844 -0.098512523 1.3279999
0.27816215 -0.098512523 1.3279999
0.28178281 -0.098883428 1.3329999
0.28435618 -0.098883428 1.3329999
0.28692952 -0.098883428 1.3329999
0.28950289 -0.098883428 1.3329999
0.25347584 -0.096315026 1.3329999
0.25604922 -0.096315026 1.3329999
0.25862259 -0.096315026 1.3329999
0.26119593 -0.096315026 1.3329999
0.2637693 -0.096315026 1.3329999
0.26634264 -0.096315026 1.3329999
0.26891601 -0.096315026 1.3329999
0.27148938 -0.096315026 1.3329999
0.27406272 -0.096315026 1.3329999
0.27663609 -0.096315026 1.3329999
0.27920943 -0.096315026 1.3329999
0.28178281 -0.096315026 1.3329999
0.28435618 -0.096315026 1.3329999
0.28692952 -0.096315026 1.3329999
0.28950289 -0.096315026 1.3329999
0.25862259 -0.093746625 1.3329999
0.26119593 -0.093746625 1.3329999
0.2637693 -0.093746625 1.3329999
0.26634264 -0.093746625 1.3329999
0.26891601 -0.093746625 1.3329999
0.27148938 -0.093746625 1.3329999
0.27406272 -0.093746625 1.3329999
0.27663609 -0.093746625 1.3329999
0.27920943 -0.093746625 1.3329999
0.28178281 -0.093746625 1.3329999
0.28435618 -0.093746625 1.3329999
0.2880058 -0.09409827 1.3380001
0.29058883 -0.09409827 1.3380001
0.25862259 -0.091178223 1.3329999
0.26119593 -0.091178223 1.3329999
0.2637693 -0.091178223 1.3329999
0.26634264 -0.091178223 1.3329999
0.26891601 -0.091178223 1.3329999
0.27148938 -0.091178223 1.3329999
0.27406272 -0.091178223 1.3329999
0.27663609 -0.091178223 1.3329999
0.27920943 -0.091178223 1.3329999
0.28178281 -0.091178223 1.3329999
0.28435618 -0.091178223 1.3329999
0.25862259 -0.088609822 1.3329999
0.26119593 -0.088609822 1.3329999
0.2637693 -0.088609822 1.3329999
0.26634264 -0.088609822 1.3329999
0.26891601 -0.088609822 1.3329999
0.27148938 -0.088609822 1.3329999
0.27406272 -0.088609822 1.3329999
0.27663609 -0.088609822 1.3329999
0.27920943 -0.088609822 1.3329999
0.28178281 -0.088609822 1.3329999
0.25862259 -0.086041421 1.3329999
0.26119593 -0.086041421 1.3329999
0.2637693 -0.086041421 1.3329999
0.26634264 -0.086041421 1.3329999
0.26891601 -0.086041421 1.3329999
0.27148938 -0.086041421 1.3329999
0.27406272 -0.086041421 1.3329999
0.27663609 -0.086041421 1.3329999
0.27920943 -0.086041421 1.3329999
0.28178281 -0.086041421 1.3329999
0.26119593 -0.083473019 1.3329999
0.2637693 -0.083473019 1.3329999
0.26634264 -0.083473019 1.3329999
0.26891601 -0.083473019 1.3329999
0.27250773 -0.08378613 1.3380001
0.26119593 -0.080904618 1.3329999
0.2637693 -0.080904618 1.3329999
0.26634264 -0.080904618 1.3329999
0.28072587 -0.11386512 1.3279999
0.28072587 -0.11386512 1.3279999
0.28328955 -0.11386512 1.3279999
0.28328955 -0.11386512 1.3279999
0.27816215 -0.11130635 1.3279999
0.27816215 -0.11130635 1.3279999
0.28072587 -0.11130635 1.3279999
0.28072587 -0.11130635 1.3279999
0.28328955 -0.11130635 1.3279999
0.28328955 -0.11130635 1.3279999
0.28585327 -0.11130635 1.3279999
0.28585327 -0.11130635 1.3279999
0.26790732 -0.11130635 1.3279999
0.26790732 -0.11130635 1.3279999
0.26790732 -0.11386512 1.3279999
0.26790732 -0.11386512 1.3279999
0.27047104 -0.11386512 1.3279999
0.27047104 -0.11386512 1.3279999
0.2854228 -0.086364165 1.3380001
0.2854228 -0.086364165 1.3380001
0.25508881 -0.11642389 1.3279999
0.25508881 -0.11642389 1.3279999
0.2509025 -0.11429383 1.3329999
0.2509025 -0.11429383 1.3329999
0.25252509 -0.11386512 1.3279999
0.25252509 -0.11386512 1.3279999
0.25508881 -0.11386512 1.3279999
0.25508881 -0.11386512 1.3279999
0.25252509 -0.11130635 1.3279999
0.25252509 -0.11130635 1.3279999
0.25508881 -0.11130635 1.3279999
0.25508881 -0.11130635 1.3279999
0.27303475 -0.11130635 1.3279999
0.27303475 -0.11130635 1.3279999
0.27047104 -0.10874759 1.3279999
0.27047104 -0.10874759 1.3279999
0.27352607 -0.078923896 1.3430001
0.27352607 -0.078923896 1.3430001
0.27611873 -0.078923896 1.3430001
0.27611873 -0.078923896 1.3430001
0.27352607 -0.076336227 1.3430001
0.27352607 -0.076336227 1.3430001
0.27047104 -0.11130635 1.3279999
0.27047104 -0.11130635 1.3279999
0.27559844 -0.11130635 1.3279999
0.27559844 -0.11130635 1.3279999
0.27180117 -0.11335067 1.322
0.27180117 -0.11335067 1.322
0.27509075 -0.08378613 1.3380001
0.27509075 -0.08378613 1.3380001
0.27767375 -0.08378613 1.3380001
0.27767375 -0.08378613 1.3380001
0.28025678 -0.08378613 1.3380001
0.28025678 -0.08378613 1.3380001
0.26992473 -0.081208095 1.3380001
0.26992473 -0.081208095 1.3380001
0.27250773 -0.081208095 1.3380001
0.27250773 -0.081208095 1.3380001
0.27509075 -0.081208095 1.3380001
0.27509075 -0.081208095 1.3380001
0.28025678 -0.081208095 1.3380001
0.28025678 -0.081208095 1.3380001
0.26992473 -0.07863006 1.3380001
0.26992473 -0.07863006 1.3380001
0.2673417 -0.076052025 1.3380001
0.2673417 -0.076052025 1.3380001
0.26992473 -0.076052025 1.3380001
0.26992473 -0.076052025 1.3380001
0.2673417 -0.07347399 1.3380001
0.2673417 -0.07347399 1.3380001
0.26315543 -0.07116089 1.3430001
0.26315543 -0.07116089 1.3430001
0.26574808 -0.07116089 1.3430001
0.26574808 -0.07116089 1.3430001
0.27816215 -0.11386512 1.3279999
0.27816215 -0.11386512 1.3279999
0.2854228 -0.0889422 1.3380001
0.2854228 -0.0889422 1.3380001
0.28283978 -0.08378613 1.3380001
0.28283978 -0.08378613 1.3380001
0.26634264 -0.078336224 1.3329999
0.26634264 -0.078336224 1.3329999
0.2637693 -0.075767823 1.3329999
0.2637693 -0.075767823 1.3329999
0.26119593 -0.073199421 1.3329999
0.26119593 -0.073199421 1.3329999
0.2637693 -0.073199421 1.3329999
0.2637693 -0.073199421 1.3329999
0.26119593 -0.078336224 1.3329999
0.26119593 -0.078336224 1.3329999
0.2637693 -0.078336224 1.3329999
0.2637693 -0.078336224 1.3329999
0.26119593 -0.075767823 1.3329999
0.26119593 -0.075767823 1.3329999
0.25765249 -0.11386512 1.3279999
0.25765249 -0.11386512 1.3279999
