# .PCD v0.7 - Point Cloud Data file format
VERSION 0.7
FIELDS x y z
SIZE 4 4 4
TYPE F F F
COUNT 1 1 1
WIDTH 1544
HEIGHT 1
VIEWPOINT 0 0 0 1 0 0 0
POINTS 1544
DATA ascii
0.0069054053 -0.12504238 1.022
0.0089044403 -0.12540944 1.025
0.010883205 -0.12540944 1.025
0.012861969 -0.12540944 1.025
0.014840733 -0.12540944 1.025
0.016819498 -0.12540944 1.025
0.018798262 -0.12540944 1.025
0.020777026 -0.12540944 1.025
0.025265446 -0.12810116 1.0470001
0.02728668 -0.12810116 1.0470001
0.029307917 -0.12810116 1.0470001
0.031329151 -0.12810116 1.0470001
0.033445943 -0.1284682 1.05
0.03547297 -0.1284682 1.05
0.037499998 -0.1284682 1.05
0.039527025 -0.1284682 1.05
0.041712355 -0.12895761 1.054
0.043747105 -0.12895761 1.054
0.045912165 -0.12932467 1.057
0.047952704 -0.12932467 1.057
0.050277025 -0.13005877 1.063
0.052526064 -0.13054818 1.067
0.054585908 -0.13054818 1.067
0.056645755 -0.13054818 1.067
0.058870658 -0.13091522 1.0700001
0.06110714 -0.13128227 1.073
0.063178569 -0.13128227 1.073
0.065249994 -0.13128227 1.073
0.067572393 -0.13177168 1.077
0.069651544 -0.13177168 1.077
0.071730696 -0.13177168 1.077
0.074015446 -0.13213873 1.08
0.076382242 -0.13262813 1.084
0.078692086 -0.13299519 1.087
0.080790542 -0.13299519 1.087
0.082888998 -0.13299519 1.087
-0.014536679 -0.12090558 1.0039999
-0.012598455 -0.12090558 1.0039999
-0.010692084 -0.12126686 1.007
-0.0087480694 -0.12126686 1.007
-0.0068243244 -0.12162813 1.01
-0.004888996 -0.12198941 1.013
-0.002942085 -0.12235068 1.016
-0.00098069501 -0.12235068 1.016
0.00098069501 -0.12235068 1.016
0.0029507724 -0.12271195 1.0190001
0.0049324324 -0.12307321 1.022
0.0069054053 -0.12307321 1.022
0.0089044403 -0.12343448 1.025
0.010883205 -0.12343448 1.025
0.012861969 -0.12343448 1.025
0.014840733 -0.12343448 1.025
0.016819498 -0.12343448 1.025
0.018798262 -0.12343448 1.025
0.020777026 -0.12343448 1.025
0.02728668 -0.12608382 1.0470001
0.029307917 -0.12608382 1.0470001
0.031329151 -0.12608382 1.0470001
0.033445943 -0.12644508 1.05
0.03547297 -0.12644508 1.05
0.037499998 -0.12644508 1.05
0.039527025 -0.12644508 1.05
0.041712355 -0.12692678 1.054
0.043871623 -0.12728806 1.057
0.045912165 -0.12728806 1.057
0.0480888 -0.12764932 1.0599999
0.050466217 -0.1284923 1.067
0.052526064 -0.1284923 1.067
0.054739386 -0.12885357 1.0700001
0.056805022 -0.12885357 1.0700001
0.059035711 -0.12921484 1.073
0.06110714 -0.12921484 1.073
0.063178569 -0.12921484 1.073
0.065249994 -0.12921484 1.073
0.067572393 -0.12969653 1.077
0.069651544 -0.12969653 1.077
0.071730696 -0.12969653 1.077
0.074015446 -0.13005781 1.08
0.076382242 -0.13053949 1.084
0.078692086 -0.13090077 1.087
0.081013516 -0.13126205 1.09
0.083117761 -0.13126205 1.09
-0.014536679 -0.11897109 1.0039999
-0.0126361 -0.11932658 1.007
-0.010692084 -0.11932658 1.007
-0.0087480694 -0.11932658 1.007
-0.0068243244 -0.11968208 1.01
-0.004888996 -0.12003757 1.013
-0.002942085 -0.12039307 1.016
-0.00098069501 -0.12039307 1.016
0.00098069501 -0.12039307 1.016
0.0029507724 -0.12074856 1.0190001
0.0049324324 -0.12110404 1.022
0.0069256756 -0.12145954 1.025
0.0089044403 -0.12145954 1.025
0.010883205 -0.12145954 1.025
0.012861969 -0.12145954 1.025
0.014840733 -0.12145954 1.025
0.016819498 -0.12145954 1.025
0.018798262 -0.12145954 1.025
0.02728668 -0.12406648 1.0470001
0.029307917 -0.12406648 1.0470001
0.031418916 -0.12442196 1.05
0.033445943 -0.12442196 1.05
0.03547297 -0.12442196 1.05
0.037499998 -0.12442196 1.05
0.039677609 -0.12489595 1.054
0.041831084 -0.12525146 1.057
0.043996137 -0.12560692 1.0599999
0.046042468 -0.12560692 1.0599999
0.048224904 -0.12596242 1.063
0.050466217 -0.12643643 1.067
0.052526064 -0.12643643 1.067
0.054739386 -0.12679191 1.0700001
0.056805022 -0.12679191 1.0700001
0.059035711 -0.12714739 1.073
0.06110714 -0.12714739 1.073
0.063414097 -0.12762138 1.077
0.065493241 -0.12762138 1.077
0.067572393 -0.12762138 1.077
0.069845565 -0.12797688 1.08
0.071930505 -0.12797688 1.08
0.074289575 -0.12845087 1.084
0.07659363 -0.12880635 1.087
0.07890927 -0.12916185 1.09
0.081013516 -0.12916185 1.09
0.083117761 -0.12916185 1.09
-0.0126361 -0.11738632 1.007
-0.010723938 -0.11773603 1.01
-0.0087741315 -0.11773603 1.01
-0.0068445946 -0.11808574 1.013
-0.0049034753 -0.11843546 1.016
-0.002942085 -0.11843546 1.016
-0.00098069501 -0.11843546 1.016
0.00098359084 -0.11878517 1.0190001
0.0029594593 -0.11913487 1.022
0.0049324324 -0.11913487 1.022
0.0069256756 -0.11948458 1.025
0.0089044403 -0.11948458 1.025
0.010915058 -0.1198343 1.028
0.012899614 -0.1198343 1.028
0.014840733 -0.11948458 1.025
0.016819498 -0.11948458 1.025
0.018798262 -0.11948458 1.025
0.025265446 -0.12204914 1.0470001
0.027364863 -0.12239884 1.05
0.02939189 -0.12239884 1.05
0.031418916 -0.12239884 1.05
0.033445943 -0.12239884 1.05
0.035608109 -0.12286513 1.054
0.037642859 -0.12286513 1.054
0.039790541 -0.12321484 1.057
0.04206853 -0.12391426 1.063
0.044120654 -0.12391426 1.063
0.046172779 -0.12391426 1.063
0.048224904 -0.12391426 1.063
0.050466217 -0.12438054 1.067
0.052526064 -0.12438054 1.067
0.054739386 -0.12473026 1.0700001
0.056805022 -0.12473026 1.0700001
0.059035711 -0.12507996 1.073
0.061334942 -0.12554625 1.077
0.063414097 -0.12554625 1.077
0.065493241 -0.12554625 1.077
0.067760624 -0.12589596 1.08
0.069845565 -0.12589596 1.08
0.072196908 -0.12636223 1.084
0.074289575 -0.12636223 1.084
0.07659363 -0.12671195 1.087
0.07890927 -0.12706167 1.09
0.081013516 -0.12706167 1.09
0.083117761 -0.12706167 1.09
-0.014623552 -0.11578998 1.01
-0.012673745 -0.11578998 1.01
-0.010755791 -0.11613391 1.013
-0.0088001927 -0.11613391 1.013
-0.0068445946 -0.11613391 1.013
-0.0049034753 -0.11647785 1.016
-0.002942085 -0.11647785 1.016
-0.00098359084 -0.11682178 1.0190001
0.00098648644 -0.1171657 1.022
0.0029594593 -0.1171657 1.022
0.0049469112 -0.11750963 1.025
0.0069256756 -0.11750963 1.025
0.0089044403 -0.11750963 1.025
0.010915058 -0.11785357 1.028
0.012899614 -0.11785357 1.028
0.01488417 -0.11785357 1.028
0.016868725 -0.11785357 1.028
0.018908301 -0.1181975 1.031
0.025265446 -0.1200318 1.0470001
0.027364863 -0.12037572 1.05
0.02939189 -0.12037572 1.05
0.031538609 -0.1208343 1.054
0.033573359 -0.1208343 1.054
0.035608109 -0.1208343 1.054
0.037642859 -0.1208343 1.054
0.039903473 -0.12152215 1.0599999
0.04206853 -0.12186608 1.063
0.044120654 -0.12186608 1.063
0.046172779 -0.12186608 1.063
0.048224904 -0.12186608 1.063
0.050466217 -0.12232467 1.067
0.052526064 -0.12232467 1.067
0.054739386 -0.1226686 1.0700001
0.056805022 -0.1226686 1.0700001
0.059255794 -0.1234711 1.077
0.061334942 -0.1234711 1.077
0.063414097 -0.1234711 1.077
0.065493241 -0.1234711 1.077
0.067760624 -0.12381504 1.08
0.069845565 -0.12381504 1.08
0.072196908 -0.12427361 1.084
0.074289575 -0.12427361 1.084
0.07659363 -0.12461753 1.087
0.07890927 -0.12496147 1.09
0.081013516 -0.12496147 1.09
0.083117761 -0.12496147 1.09
-0.014623552 -0.11384393 1.01
-0.01271139 -0.11418208 1.013
-0.010755791 -0.11418208 1.013
-0.0088001927 -0.11418208 1.013
-0.0068648653 -0.11452024 1.016
-0.0049034753 -0.11452024 1.016
-0.002942085 -0.11452024 1.016
-0.00098359084 -0.11485839 1.0190001
0.00098648644 -0.11519653 1.022
0.0029681467 -0.11553468 1.025
0.0049469112 -0.11553468 1.025
0.0069256756 -0.11553468 1.025
0.0089305015 -0.11587283 1.028
0.010915058 -0.11587283 1.028
0.012899614 -0.11587283 1.028
0.014927606 -0.11621098 1.031
0.016917953 -0.11621098 1.031
0.018908301 -0.11621098 1.031
0.02324421 -0.11801445 1.0470001
0.025337836 -0.1183526 1.05
0.027364863 -0.1183526 1.05
0.02939189 -0.1183526 1.05
0.031538609 -0.11880347 1.054
0.033573359 -0.11880347 1.054
0.035608109 -0.11880347 1.054
0.037642859 -0.11880347 1.054
0.039903473 -0.11947976 1.0599999
0.04206853 -0.11981791 1.063
0.044120654 -0.11981791 1.063
0.046346527 -0.12026879 1.067
0.048406374 -0.12026879 1.067
0.050466217 -0.12026879 1.067
0.052673746 -0.12060694 1.0700001
0.054892857 -0.12094508 1.073
0.056964282 -0.12094508 1.073
0.059255794 -0.12139595 1.077
0.061334942 -0.12139595 1.077
0.063414097 -0.12139595 1.077
0.065675676 -0.12173411 1.08
0.067760624 -0.12173411 1.08
0.070104249 -0.12218497 1.084
0.072396718 -0.12252312 1.087
0.074495174 -0.12252312 1.087
0.076805025 -0.12286127 1.09
0.07890927 -0.12286127 1.09
0.081013516 -0.12286127 1.09
-0.014666989 -0.11223025 1.013
-0.01271139 -0.11223025 1.013
-0.010787645 -0.11256263 1.016
-0.0088262549 -0.11256263 1.016
-0.0068648653 -0.11256263 1.016
-0.0049179541 -0.112895 1.0190001
-0.0029594593 -0.11322735 1.022
-0.00098648644 -0.11322735 1.022
0.00098938227 -0.11355973 1.025
0.0029681467 -0.11355973 1.025
0.0049469112 -0.11355973 1.025
0.0069256756 -0.11355973 1.025
0.0089305015 -0.1138921 1.028
0.010915058 -0.1138921 1.028
0.012937259 -0.11422447 1.031
0.014927606 -0.11422447 1.031
0.016917953 -0.11422447 1.031
0.018908301 -0.11422447 1.031
0.02331081 -0.11632948 1.05
0.025337836 -0.11632948 1.05
0.027364863 -0.11632948 1.05
0.02939189 -0.11632948 1.05
0.031538609 -0.11677264 1.054
0.033573359 -0.11677264 1.054
0.035608109 -0.11677264 1.054
0.037642859 -0.11677264 1.054
0.039903473 -0.11743737 1.0599999
0.04206853 -0.11776975 1.063
0.044286679 -0.11821292 1.067
0.046346527 -0.11821292 1.067
0.048406374 -0.11821292 1.067
0.05060811 -0.11854529 1.0700001
0.052821428 -0.11887764 1.073
0.054892857 -0.11887764 1.073
0.056964282 -0.11887764 1.073
0.059255794 -0.11932081 1.077
0.061334942 -0.11932081 1.077
0.063590735 -0.11965318 1.08
0.065675676 -0.11965318 1.08
0.068011582 -0.12009634 1.084
0.070298262 -0.12042871 1.087
0.072596528 -0.12076108 1.09
0.074700773 -0.12076108 1.09
0.076805025 -0.12076108 1.09
0.079198837 -0.12120423 1.094
0.081310809 -0.12120423 1.094
-0.014666989 -0.11027842 1.013
-0.012749035 -0.11060502 1.016
-0.010787645 -0.11060502 1.016
-0.0088262549 -0.11060502 1.016
-0.0068851355 -0.11093161 1.0190001
-0.0049179541 -0.11093161 1.0190001
-0.0029594593 -0.11125819 1.022
-0.00098938227 -0.11158478 1.025
0.00098938227 -0.11158478 1.025
0.0029681467 -0.11158478 1.025
0.00496139 -0.11191137 1.028
0.0069459458 -0.11191137 1.028
0.0089565637 -0.11223796 1.031
0.010946912 -0.11223796 1.031
0.012937259 -0.11223796 1.031
0.014971043 -0.11256455 1.034
0.021222973 -0.11397977 1.0470001
0.02331081 -0.11430635 1.05
0.025337836 -0.11430635 1.05
0.027364863 -0.11430635 1.05
0.02939189 -0.11430635 1.05
0.031538609 -0.11474181 1.054
0.033573359 -0.11474181 1.054
0.035608109 -0.11474181 1.054
0.037750002 -0.11506841 1.057
0.040016409 -0.11572158 1.063
0.042226836 -0.11615703 1.067
0.044286679 -0.11615703 1.067
0.046476837 -0.11648363 1.0700001
0.048542473 -0.11648363 1.0700001
0.05060811 -0.11648363 1.0700001
0.052821428 -0.11681021 1.073
0.054892857 -0.11681021 1.073
0.057176642 -0.11724567 1.077
0.059255794 -0.11724567 1.077
0.061505795 -0.11757226 1.08
0.063590735 -0.11757226 1.08
0.065918915 -0.1180077 1.084
0.068199806 -0.1183343 1.087
0.070492283 -0.11866089 1.09
0.072596528 -0.11866089 1.09
0.074700773 -0.11866089 1.09
0.076805025 -0.11866089 1.09
0.079705596 -0.11985838 1.101
0.081831075 -0.11985838 1.101
-0.016573358 -0.10800578 1.01
-0.014666989 -0.10832659 1.013
-0.012749035 -0.1086474 1.016
-0.010787645 -0.1086474 1.016
-0.008852317 -0.10896821 1.0190001
-0.0068851355 -0.10896821 1.0190001
-0.0049324324 -0.10928901 1.022
-0.0029681467 -0.10960983 1.025
-0.00098938227 -0.10960983 1.025
0.00098938227 -0.10960983 1.025
0.0029768341 -0.10993063 1.028
0.00496139 -0.10993063 1.028
0.0069459458 -0.10993063 1.028
0.0089565637 -0.11025145 1.031
0.010946912 -0.11025145 1.031
0.012974904 -0.11057226 1.034
0.019201739 -0.11196243 1.0470001
0.021283783 -0.11228323 1.05
0.02331081 -0.11228323 1.05
0.025337836 -0.11228323 1.05
0.027364863 -0.11228323 1.05
0.02939189 -0.11228323 1.05
0.031538609 -0.11271098 1.054
0.033573359 -0.11271098 1.054
0.035709459 -0.1130318 1.057
0.037857141 -0.1133526 1.0599999
0.040016409 -0.1136734 1.063
0.042226836 -0.11410116 1.067
0.044286679 -0.11410116 1.067
0.046476837 -0.11442197 1.0700001
0.048542473 -0.11442197 1.0700001
0.05060811 -0.11442197 1.0700001
0.052821428 -0.11474277 1.073
0.054892857 -0.11474277 1.073
0.057176642 -0.11517052 1.077
0.059255794 -0.11517052 1.077
0.061505795 -0.11549133 1.08
0.063590735 -0.11549133 1.08
0.065918915 -0.11591908 1.084
0.068199806 -0.11623988 1.087
0.070492283 -0.1165607 1.09
0.072596528 -0.1165607 1.09
0.074700773 -0.1165607 1.09
0.077580109 -0.11773699 1.101
0.080212355 -0.11848556 1.108
0.082351357 -0.11848556 1.108
-0.016573358 -0.10605973 1.01
-0.012749035 -0.10668979 1.016
-0.010819498 -0.10700482 1.0190001
-0.008852317 -0.10700482 1.0190001
-0.0069054053 -0.10731984 1.022
-0.0049324324 -0.10731984 1.022
-0.0029681467 -0.10763487 1.025
-0.00098938227 -0.10763487 1.025
0.00098938227 -0.10763487 1.025
0.0029768341 -0.10794991 1.028
0.00496139 -0.10794991 1.028
0.0069662165 -0.10826494 1.031
0.0089826258 -0.10857996 1.034
0.010978765 -0.10857996 1.034
0.012974904 -0.10857996 1.034
0.019201739 -0.10994509 1.0470001
0.021283783 -0.11026011 1.05
0.02331081 -0.11026011 1.05
0.025337836 -0.11026011 1.05
0.027364863 -0.11026011 1.05
0.02939189 -0.11026011 1.05
0.031538609 -0.11068016 1.054
0.033573359 -0.11068016 1.054
0.035709459 -0.11099519 1.057
0.037857141 -0.11131021 1.0599999
0.040016409 -0.11162524 1.063
0.042226836 -0.11204528 1.067
0.044286679 -0.11204528 1.067
0.046346527 -0.11204528 1.067
0.048542473 -0.11236031 1.0700001
0.050749999 -0.11267533 1.073
0.052821428 -0.11267533 1.073
0.054892857 -0.11267533 1.073
0.057176642 -0.11309538 1.077
0.05942085 -0.11341041 1.08
0.061505795 -0.11341041 1.08
0.063826256 -0.11383044 1.084
0.06610135 -0.11414547 1.087
0.06838803 -0.11446051 1.09
0.070492283 -0.11446051 1.09
0.072862931 -0.11488054 1.094
0.074974902 -0.11488054 1.094
0.077861972 -0.11603565 1.105
0.080212355 -0.11635068 1.108
-0.016622586 -0.10442293 1.013
-0.01278668 -0.10504143 1.0190001
-0.010819498 -0.10504143 1.0190001
-0.0088783782 -0.10535067 1.022
-0.0069054053 -0.10535067 1.022
-0.0049469112 -0.10565992 1.025
-0.0029681467 -0.10565992 1.025
-0.00099227799 -0.10596917 1.028
0.00099227799 -0.10596917 1.028
0.0029768341 -0.10596917 1.028
0.0049758689 -0.10627842 1.031
0.0069864867 -0.10658767 1.034
0.0089826258 -0.10658767 1.034
0.010978765 -0.10658767 1.034
0.013025097 -0.107 1.038
0.019201739 -0.10792775 1.0470001
0.021283783 -0.10823699 1.05
0.02331081 -0.10823699 1.05
0.025434364 -0.10864933 1.054
0.029587839 -0.10895858 1.057
0.031628381 -0.10895858 1.057
0.03366892 -0.10895858 1.057
0.035709459 -0.10895858 1.057
0.037857141 -0.10926782 1.0599999
0.040016409 -0.10957707 1.063
0.042226836 -0.1099894 1.067
0.044286679 -0.1099894 1.067
0.046346527 -0.1099894 1.067
0.048542473 -0.11029866 1.0700001
0.050749999 -0.11060789 1.073
0.052821428 -0.11060789 1.073
0.054892857 -0.11060789 1.073
0.057335909 -0.11132948 1.08
0.05942085 -0.11132948 1.08
0.061733589 -0.11174181 1.084
0.063826256 -0.11174181 1.084
0.06610135 -0.11205106 1.087
0.06838803 -0.11236031 1.09
0.070492283 -0.11236031 1.09
0.072862931 -0.11277264 1.094
0.074974902 -0.11277264 1.094
0.077861972 -0.11390655 1.105
0.079995178 -0.11390655 1.105
-0.018468145 -0.10186416 1.007
-0.016622586 -0.1024711 1.013
-0.014710425 -0.10277457 1.016
-0.01278668 -0.10307804 1.0190001
-0.010851351 -0.1033815 1.022
-0.0088783782 -0.1033815 1.022
-0.0069256756 -0.10368497 1.025
-0.0049469112 -0.10368497 1.025
-0.0029768341 -0.10398844 1.028
-0.00099227799 -0.10398844 1.028
0.00099227799 -0.10398844 1.028
0.0029768341 -0.10398844 1.028
0.0049758689 -0.10429191 1.031
0.0069864867 -0.10459538 1.034
0.0089826258 -0.10459538 1.034
0.010978765 -0.10459538 1.034
0.013025097 -0.105 1.038
0.015028957 -0.105 1.038
0.017131275 -0.10560694 1.044
0.019201739 -0.10591041 1.0470001
0.021222973 -0.10591041 1.0470001
0.02331081 -0.10621387 1.05
0.025434364 -0.1066185 1.054
0.027547298 -0.10692197 1.057
0.029587839 -0.10692197 1.057
0.031628381 -0.10692197 1.057
0.03366892 -0.10692197 1.057
0.035709459 -0.10692197 1.057
0.037964284 -0.1075289 1.063
0.040166989 -0.10793353 1.067
0.042226836 -0.10793353 1.067
0.044286679 -0.10793353 1.067
0.046476837 -0.108237 1.0700001
0.048678569 -0.10854046 1.073
0.050939191 -0.10894509 1.077
0.053018343 -0.10894509 1.077
0.055097491 -0.10894509 1.077
0.057335909 -0.10924856 1.08
0.059640925 -0.10965317 1.084
0.061904442 -0.10995665 1.087
0.064002894 -0.10995665 1.087
0.066283785 -0.11026012 1.09
0.068638995 -0.11066474 1.094
0.070750967 -0.11066474 1.094
0.072862931 -0.11066474 1.094
0.074974902 -0.11066474 1.094
0.077298261 -0.11096821 1.097
0.079416022 -0.11096821 1.097
-0.020412162 -0.099923886 1.007
-0.018523166 -0.10022158 1.01
-0.016622586 -0.10051927 1.013
-0.014710425 -0.10081696 1.016
-0.012824324 -0.10141233 1.022
-0.010851351 -0.10141233 1.022
-0.0088783782 -0.10141233 1.022
-0.0069256756 -0.10171001 1.025
-0.0049469112 -0.10171001 1.025
-0.0029768341 -0.10200771 1.028
-0.00099227799 -0.10200771 1.028
0.00099227799 -0.10200771 1.028
0.0029855212 -0.1023054 1.031
0.0049903477 -0.10260309 1.034
0.0069864867 -0.10260309 1.034
0.0090173744 -0.103 1.038
0.011021235 -0.103 1.038
0.013025097 -0.103 1.038
0.015072394 -0.10329769 1.041
0.017131275 -0.10359538 1.044
0.019201739 -0.10389307 1.0470001
0.021222973 -0.10389307 1.0470001
0.023399614 -0.10458767 1.054
0.025434364 -0.10458767 1.054
0.027547298 -0.10488536 1.057
0.029671812 -0.10518304 1.0599999
0.031807914 -0.10548073 1.063
0.033860039 -0.10548073 1.063
0.03591216 -0.10548073 1.063
0.038107146 -0.10587765 1.067
0.040166989 -0.10587765 1.067
0.042345561 -0.10617534 1.0700001
0.044411197 -0.10617534 1.0700001
0.04660714 -0.10647302 1.073
0.04886004 -0.10686994 1.077
0.050939191 -0.10686994 1.077
0.053018343 -0.10686994 1.077
0.055097491 -0.10686994 1.077
0.057335909 -0.10716763 1.08
0.059640925 -0.10756455 1.084
0.061904442 -0.10786223 1.087
0.064002894 -0.10786223 1.087
0.066283785 -0.10815993 1.09
0.068638995 -0.10855684 1.094
0.070750967 -0.10855684 1.094
0.072862931 -0.10855684 1.094
0.075180501 -0.10885452 1.097
0.077298261 -0.10885452 1.097
0.079416022 -0.10885452 1.097
-0.020412162 -0.097983621 1.007
-0.018578185 -0.098567441 1.013
-0.016671816 -0.098859347 1.016
-0.014753861 -0.099151261 1.0190001
-0.012824324 -0.099443153 1.022
-0.010883205 -0.099735066 1.025
-0.0089044403 -0.099735066 1.025
-0.0069256756 -0.099735066 1.025
-0.00496139 -0.10002697 1.028
-0.0029768341 -0.10002697 1.028
-0.00099517382 -0.10031889 1.031
0.00099517382 -0.10031889 1.031
0.0029942086 -0.10061079 1.034
0.0050096526 -0.101 1.038
0.0070135132 -0.101 1.038
0.0090173744 -0.101 1.038
0.011021235 -0.101 1.038
0.013062742 -0.10129191 1.041
0.015072394 -0.10129191 1.041
0.017131275 -0.10158382 1.044
0.019201739 -0.10187573 1.0470001
0.021283783 -0.10216763 1.05
0.023399614 -0.10255684 1.054
0.025506757 -0.10284875 1.057
0.027625481 -0.10314065 1.0599999
0.02975579 -0.10343256 1.063
0.031807914 -0.10343256 1.063
0.033860039 -0.10343256 1.063
0.03591216 -0.10343256 1.063
0.038107146 -0.10382178 1.067
0.040279925 -0.10411368 1.0700001
0.042345561 -0.10411368 1.0700001
0.044411197 -0.10411368 1.0700001
0.046780888 -0.1047948 1.077
0.04886004 -0.1047948 1.077
0.050939191 -0.1047948 1.077
0.053018343 -0.1047948 1.077
0.055250969 -0.10508671 1.08
0.057548262 -0.10547592 1.084
0.059805986 -0.10576782 1.087
0.061904442 -0.10576782 1.087
0.06417954 -0.10605973 1.09
0.066283785 -0.10605973 1.09
0.068638995 -0.10644894 1.094
0.07094498 -0.10674085 1.097
0.07306274 -0.10674085 1.097
0.075180501 -0.10674085 1.097
0.077861972 -0.10751927 1.105
0.079995178 -0.10751927 1.105
-0.020412162 -0.096043348 1.007
-0.018578185 -0.096615605 1.013
-0.016671816 -0.096901737 1.016
-0.014753861 -0.097187869 1.0190001
-0.012824324 -0.097473986 1.022
-0.010851351 -0.097473986 1.022
-0.0089044403 -0.097760111 1.025
-0.0069256756 -0.097760111 1.025
-0.00496139 -0.098046243 1.028
-0.0029768341 -0.098046243 1.028
-0.00099517382 -0.098332375 1.031
0.00099806953 -0.0986185 1.034
0.0029942086 -0.0986185 1.034
0.0050096526 -0.098999999 1.038
0.0070135132 -0.098999999 1.038
0.0090173744 -0.098999999 1.038
0.011021235 -0.098999999 1.038
0.013062742 -0.099286132 1.041
0.01511583 -0.099572256 1.044
0.017180502 -0.099858388 1.0470001
0.019256756 -0.10014451 1.05
0.021283783 -0.10014451 1.05
0.023399614 -0.10052601 1.054
0.025506757 -0.10081214 1.057
0.027625481 -0.10109826 1.0599999
0.02975579 -0.10138439 1.063
0.031927608 -0.1017659 1.067
0.033987451 -0.1017659 1.067
0.036047298 -0.1017659 1.067
0.038214289 -0.10205203 1.0700001
0.040279925 -0.10205203 1.0700001
0.042345561 -0.10205203 1.0700001
0.044411197 -0.10205203 1.0700001
0.046780888 -0.10271966 1.077
0.04886004 -0.10271966 1.077
0.051081084 -0.10300578 1.08
0.053166024 -0.10300578 1.08
0.055250969 -0.10300578 1.08
0.05770753 -0.10367341 1.087
0.059971046 -0.10395954 1.09
0.062075291 -0.10395954 1.09
0.06417954 -0.10395954 1.09
0.066283785 -0.10395954 1.09
0.068638995 -0.10434104 1.094
0.07094498 -0.10462717 1.097
0.07306274 -0.10462717 1.097
0.07545463 -0.10500867 1.101
0.077861972 -0.10539018 1.105
0.080212355 -0.1056763 1.108
-0.020412162 -0.094103083 1.007
-0.018578185 -0.094663776 1.013
-0.016671816 -0.094944127 1.016
-0.014753861 -0.095224477 1.0190001
-0.012824324 -0.095504813 1.022
-0.010851351 -0.095504813 1.022
-0.0089044403 -0.095785163 1.025
-0.0069459458 -0.096065514 1.028
-0.00496139 -0.096065514 1.028
-0.0029855212 -0.096345857 1.031
-0.00099517382 -0.096345857 1.031
0.00099806953 -0.096626207 1.034
0.0030057915 -0.096999995 1.038
0.0050096526 -0.096999995 1.038
0.0070135132 -0.096999995 1.038
0.0090173744 -0.096999995 1.038
0.011021235 -0.096999995 1.038
0.013062742 -0.097280346 1.041
0.01511583 -0.097560696 1.044
0.017180502 -0.097841047 1.0470001
0.019256756 -0.098121382 1.05
0.021283783 -0.098121382 1.05
0.023399614 -0.098495185 1.054
0.025506757 -0.098775536 1.057
0.027625481 -0.099055871 1.0599999
0.02975579 -0.099336222 1.063
0.031927608 -0.099710025 1.067
0.033987451 -0.099710025 1.067
0.036047298 -0.099710025 1.067
0.038214289 -0.099990368 1.0700001
0.040279925 -0.099990368 1.0700001
0.042345561 -0.099990368 1.0700001
0.044411197 -0.099990368 1.0700001
0.046780888 -0.10064451 1.077
0.04886004 -0.10064451 1.077
0.051081084 -0.10092486 1.08
0.053166024 -0.10092486 1.08
0.055250969 -0.10092486 1.08
0.057866797 -0.10185935 1.09
0.059971046 -0.10185935 1.09
0.062075291 -0.10185935 1.09
0.06417954 -0.10185935 1.09
0.066527024 -0.10223314 1.094
0.068638995 -0.10223314 1.094
0.07094498 -0.10251348 1.097
0.073329151 -0.10288728 1.101
0.075728767 -0.10326108 1.105
0.077861972 -0.10326108 1.105
0.079995178 -0.10326108 1.105
-0.024517376 -0.092986517 1.016
-0.022555985 -0.092986517 1.016
-0.020594595 -0.092986517 1.016
-0.018688224 -0.093261085 1.0190001
-0.01677027 -0.093535639 1.022
-0.014840733 -0.093810208 1.025
-0.012861969 -0.093810208 1.025
-0.010883205 -0.093810208 1.025
-0.0089305015 -0.094084777 1.028
-0.0069459458 -0.094084777 1.028
-0.0049758689 -0.094359346 1.031
-0.0029855212 -0.094359346 1.031
-0.00099806953 -0.094633915 1.034
0.00099806953 -0.094633915 1.034
0.0030057915 -0.094999999 1.038
0.0050096526 -0.094999999 1.038
0.0070135132 -0.094999999 1.038
0.0090434365 -0.095274568 1.041
0.011053089 -0.095274568 1.041
0.013062742 -0.095274568 1.041
0.015159267 -0.095823705 1.0470001
0.017180502 -0.095823705 1.0470001
0.019256756 -0.096098259 1.05
0.021283783 -0.096098259 1.05
0.023466216 -0.096738927 1.057
0.025579149 -0.097013481 1.0599999
0.027625481 -0.097013481 1.0599999
0.02975579 -0.09728805 1.063
0.031927608 -0.097654149 1.067
0.033987451 -0.097654149 1.067
0.036047298 -0.097654149 1.067
0.038214289 -0.09792871 1.0700001
0.040279925 -0.09792871 1.0700001
0.042464282 -0.098203272 1.073
0.044535711 -0.098203272 1.073
0.046780888 -0.098569363 1.077
0.048996139 -0.098843932 1.08
0.051081084 -0.098843932 1.08
0.053166024 -0.098843932 1.08
0.055455599 -0.099210016 1.084
0.057866797 -0.099759154 1.09
0.059971046 -0.099759154 1.09
0.062075291 -0.099759154 1.09
0.06417954 -0.099759154 1.09
0.066527024 -0.10012524 1.094
0.068827219 -0.10039981 1.097
0.07094498 -0.10039981 1.097
0.073329151 -0.10076589 1.101
0.075728767 -0.10113198 1.105
0.077861972 -0.10113198 1.105
0.079995178 -0.10113198 1.105
0.082351357 -0.10140655 1.108
-0.022689188 -0.091566473 1.022
-0.020716215 -0.091566473 1.022
-0.018743243 -0.091566473 1.022
-0.01677027 -0.091566473 1.022
-0.014840733 -0.09183526 1.025
-0.012861969 -0.09183526 1.025
-0.010915058 -0.092104048 1.028
-0.0089305015 -0.092104048 1.028
-0.0069662165 -0.092372835 1.031
-0.0049903477 -0.092641622 1.034
-0.0029942086 -0.092641622 1.034
-0.0010019304 -0.093000002 1.038
0.0010019304 -0.093000002 1.038
0.0030144788 -0.093268789 1.041
0.0050241314 -0.093268789 1.041
0.0070337839 -0.093268789 1.041
0.0090434365 -0.093268789 1.041
0.011053089 -0.093268789 1.041
0.013100387 -0.093537576 1.044
0.015159267 -0.093806364 1.0470001
0.017180502 -0.093806364 1.0470001
0.019256756 -0.094075143 1.05
0.021283783 -0.094075143 1.05
0.023466216 -0.094702318 1.057
0.025579149 -0.094971091 1.0599999
0.027703667 -0.095239878 1.063
0.02975579 -0.095239878 1.063
0.031927608 -0.095598266 1.067
0.033987451 -0.095598266 1.067
0.036047298 -0.095598266 1.067
0.038214289 -0.09586706 1.0700001
0.040279925 -0.09586706 1.0700001
0.042464282 -0.096135832 1.073
0.044535711 -0.096135832 1.073
0.046780888 -0.09649422 1.077
0.048996139 -0.096763007 1.08
0.051081084 -0.096763007 1.08
0.053362936 -0.097121388 1.084
0.055455599 -0.097121388 1.084
0.057866797 -0.097658962 1.09
0.059971046 -0.097658962 1.09
0.062075291 -0.097658962 1.09
0.06441506 -0.098017342 1.094
0.066709459 -0.09828613 1.097
0.069078185 -0.098644502 1.101
0.071203664 -0.098644502 1.101
0.073595561 -0.09900289 1.105
0.075728767 -0.09900289 1.105
0.077861972 -0.09900289 1.105
0.079995178 -0.09900289 1.105
0.082351357 -0.099271677 1.108
0.084490351 -0.099271677 1.108
-0.020716215 -0.0895973 1.022
-0.018743243 -0.0895973 1.022
-0.01677027 -0.0895973 1.022
-0.014797296 -0.0895973 1.022
-0.012861969 -0.089860305 1.025
-0.010915058 -0.090123311 1.028
-0.0089305015 -0.090123311 1.028
-0.0069662165 -0.090386324 1.031
-0.0049903477 -0.090649329 1.034
-0.0029942086 -0.090649329 1.034
-0.0010019304 -0.090999998 1.038
0.0010019304 -0.090999998 1.038
0.0030144788 -0.091263004 1.041
0.0050241314 -0.091263004 1.041
0.0070540542 -0.091526017 1.044
0.0090694986 -0.091526017 1.044
0.011084942 -0.091526017 1.044
0.013138032 -0.091789022 1.0470001
0.015202702 -0.09205202 1.05
0.017229728 -0.09205202 1.05
0.019256756 -0.09205202 1.05
0.021364866 -0.092402697 1.054
0.023532817 -0.092928708 1.0599999
0.025579149 -0.092928708 1.0599999
0.027703667 -0.093191713 1.063
0.029867761 -0.09354239 1.067
0.031927608 -0.09354239 1.067
0.033987451 -0.09354239 1.067
0.036047298 -0.09354239 1.067
0.038214289 -0.093805403 1.0700001
0.040279925 -0.093805403 1.0700001
0.042464282 -0.094068393 1.073
0.04470174 -0.094419077 1.077
0.046780888 -0.094419077 1.077
0.048996139 -0.094682083 1.08
0.051270269 -0.095032752 1.084
0.053362936 -0.095032752 1.084
0.055609073 -0.095295765 1.087
0.057866797 -0.09555877 1.09
0.059971046 -0.09555877 1.09
0.062303089 -0.095909439 1.094
0.06441506 -0.095909439 1.094
0.066952698 -0.096523114 1.101
0.069078185 -0.096523114 1.101
0.071203664 -0.096523114 1.101
0.073595561 -0.096873797 1.105
0.075728767 -0.096873797 1.105
0.077861972 -0.096873797 1.105
0.079995178 -0.096873797 1.105
0.082351357 -0.097136803 1.108
0.084490351 -0.097136803 1.108
-0.01677027 -0.087628126 1.022
-0.014797296 -0.087628126 1.022
-0.012824324 -0.087628126 1.022
-0.010915058 -0.088142581 1.028
-0.0089305015 -0.088142581 1.028
-0.0069459458 -0.088142581 1.028
-0.0049903477 -0.088657036 1.034
-0.0029942086 -0.088657036 1.034
-0.0010019304 -0.089000002 1.038
0.0010019304 -0.089000002 1.038
0.0030144788 -0.089257225 1.041
0.0050241314 -0.089257225 1.041
0.0070540542 -0.089514457 1.044
0.0090694986 -0.089514457 1.044
0.011084942 -0.089514457 1.044
0.013175675 -0.090028897 1.05
0.015202702 -0.090028897 1.05
0.017229728 -0.090028897 1.05
0.019330116 -0.09037187 1.054
0.021425676 -0.090629101 1.057
0.02359942 -0.091143541 1.063
0.025651544 -0.091143541 1.063
0.027703667 -0.091143541 1.063
0.029867761 -0.091486514 1.067
0.032017376 -0.091743745 1.0700001
0.034083012 -0.091743745 1.0700001
0.036148649 -0.091743745 1.0700001
0.038214289 -0.091743745 1.0700001
0.040392857 -0.092000961 1.073
0.042622589 -0.092343934 1.077
0.04470174 -0.092343934 1.077
0.046911199 -0.092601158 1.08
0.048996139 -0.092601158 1.08
0.051270269 -0.092944123 1.084
0.053510617 -0.093201347 1.087
0.055609073 -0.093201347 1.087
0.057866797 -0.093458578 1.09
0.059971046 -0.093458578 1.09
0.062303089 -0.093801543 1.094
0.064591698 -0.094058767 1.097
0.066952698 -0.094401732 1.101
0.069078185 -0.094401732 1.101
0.071203664 -0.094401732 1.101
0.073595561 -0.094744705 1.105
0.075728767 -0.094744705 1.105
0.077861972 -0.094744705 1.105
0.080212355 -0.095001929 1.108
0.082351357 -0.095001929 1.108
0.085634172 -0.096288055 1.123
0.087802127 -0.096288055 1.123
-0.010915058 -0.086161852 1.028
-0.0089305015 -0.086161852 1.028
-0.0069459458 -0.086161852 1.028
-0.0049903477 -0.086664744 1.034
-0.0030057915 -0.086999997 1.038
-0.0010048263 -0.087251447 1.041
0.0010048263 -0.087251447 1.041
0.0030144788 -0.087251447 1.041
0.0050386102 -0.087502889 1.044
0.0070743249 -0.087754339 1.0470001
0.0090955598 -0.087754339 1.0470001
0.011116796 -0.087754339 1.0470001
0.013175675 -0.088005774 1.05
0.015202702 -0.088005774 1.05
0.017229728 -0.088005774 1.05
0.019330116 -0.088341042 1.054
0.021547297 -0.089095369 1.063
0.023688225 -0.089430638 1.067
0.02574807 -0.089430638 1.067
0.027807916 -0.089430638 1.067
0.029867761 -0.089430638 1.067
0.032017376 -0.089682087 1.0700001
0.034083012 -0.089682087 1.0700001
0.036249999 -0.089933522 1.073
0.038321428 -0.089933522 1.073
0.040392857 -0.089933522 1.073
0.042622589 -0.090268791 1.077
0.044826258 -0.090520233 1.08
0.046911199 -0.090520233 1.08
0.048996139 -0.090520233 1.08
0.051412161 -0.091106936 1.087
0.053510617 -0.091106936 1.087
0.055762552 -0.091358386 1.09
0.057866797 -0.091358386 1.09
0.059971046 -0.091358386 1.09
0.062303089 -0.09169364 1.094
0.064591698 -0.091945089 1.097
0.066952698 -0.092280343 1.101
0.069078185 -0.092280343 1.101
0.071203664 -0.092280343 1.101
0.073329151 -0.092280343 1.101
0.075180501 -0.091945089 1.097
0.077298261 -0.091945089 1.097
0.085634172 -0.09412428 1.123
0.087802127 -0.09412428 1.123
-0.0070337839 -0.085245669 1.041
-0.0050241314 -0.085245669 1.041
-0.0030144788 -0.085245669 1.041
-0.0010048263 -0.085245669 1.041
0.0010048263 -0.085245669 1.041
0.0030144788 -0.085245669 1.041
0.005053089 -0.085736997 1.0470001
0.0070743249 -0.085736997 1.0470001
0.0090955598 -0.085736997 1.0470001
0.011148648 -0.085982658 1.05
0.013175675 -0.085982658 1.05
0.015260618 -0.086310215 1.054
0.017295368 -0.086310215 1.054
0.019330116 -0.086310215 1.054
0.021547297 -0.087047204 1.063
0.023688225 -0.087374762 1.067
0.02574807 -0.087374762 1.067
0.027807916 -0.087374762 1.067
0.029867761 -0.087374762 1.067
0.032107141 -0.087866083 1.073
0.03417857 -0.087866083 1.073
0.036249999 -0.087866083 1.073
0.038464285 -0.08819364 1.077
0.040543437 -0.08819364 1.077
0.042622589 -0.08819364 1.077
0.044826258 -0.088439308 1.08
0.046911199 -0.088439308 1.08
0.048996139 -0.088439308 1.08
0.051412161 -0.089012526 1.087
0.053510617 -0.089012526 1.087
0.055762552 -0.089258194 1.09
0.05807915 -0.089585744 1.094
0.060191117 -0.089585744 1.094
0.062303089 -0.089585744 1.094
0.064591698 -0.089831404 1.097
-0.0050241314 -0.083239883 1.041
-0.0030144788 -0.083239883 1.041
-0.0010048263 -0.083239883 1.041
0.001007722 -0.08347977 1.044
0.0030231662 -0.08347977 1.044
0.0050675673 -0.083959535 1.05
0.0070945942 -0.083959535 1.05
0.009121621 -0.083959535 1.05
0.011148648 -0.083959535 1.05
0.013175675 -0.083959535 1.05
0.015260618 -0.084279388 1.054
0.017295368 -0.084279388 1.054
0.019330116 -0.084279388 1.054
0.021547297 -0.084999032 1.063
0.023688225 -0.085318886 1.067
0.02574807 -0.085318886 1.067
0.027807916 -0.085318886 1.067
0.030035714 -0.085798651 1.073
0.032226834 -0.086118497 1.077
0.034305986 -0.086118497 1.077
0.036385138 -0.086118497 1.077
0.038464285 -0.086118497 1.077
0.040543437 -0.086118497 1.077
0.042741314 -0.086358383 1.08
0.044826258 -0.086358383 1.08
0.046911199 -0.086358383 1.08
0.048996139 -0.086358383 1.08
0.051270269 -0.086678229 1.084
0.053362936 -0.086678229 1.084
0.055762552 -0.087158002 1.09
0.05807915 -0.08747784 1.094
0.060191117 -0.08747784 1.094
-0.0030231662 -0.08146821 1.044
-0.001007722 -0.08146821 1.044
0.001007722 -0.08146821 1.044
0.0030231662 -0.08146821 1.044
0.0050675673 -0.081936412 1.05
0.0070945942 -0.081936412 1.05
0.009121621 -0.081936412 1.05
0.011148648 -0.081936412 1.05
0.013175675 -0.081936412 1.05
0.015260618 -0.082248554 1.054
0.017295368 -0.082248554 1.054
0.019440154 -0.082716756 1.0599999
0.021547297 -0.082950868 1.063
0.023688225 -0.08326301 1.067
0.02574807 -0.08326301 1.067
0.027807916 -0.08326301 1.067
0.030147685 -0.084043354 1.077
0.032226834 -0.084043354 1.077
0.034305986 -0.084043354 1.077
-0.0010135134 -0.079913288 1.05
0.0010135134 -0.079913288 1.05
0.0030405405 -0.079913288 1.05
0.0050675673 -0.079913288 1.05
0.011148648 -0.079913288 1.05
0.013175675 -0.079913288 1.05
0.015260618 -0.080217727 1.054
0.017295368 -0.080217727 1.054
0.019495172 -0.080902696 1.063
0.021547297 -0.080902696 1.063
0.023688225 -0.081207134 1.067
0.02574807 -0.081207134 1.067
0.0010173746 -0.078186899 1.054
0.0030521236 -0.078186899 1.054
0.017295368 -0.078186899 1.054
0.019330116 -0.078186899 1.054
-0.024010617 -0.11790463 0.995
-0.024010617 -0.11790463 0.995
-0.022156371 -0.11826012 0.99800003
-0.022156371 -0.11826012 0.99800003
-0.02035135 -0.11897109 1.0039999
-0.02035135 -0.11897109 1.0039999
-0.018413126 -0.11897109 1.0039999
-0.018413126 -0.11897109 1.0039999
-0.016474903 -0.11897109 1.0039999
-0.016474903 -0.11897109 1.0039999
-0.024010617 -0.11598748 0.995
-0.024010617 -0.11598748 0.995
-0.022156371 -0.11633719 0.99800003
-0.022156371 -0.11633719 0.99800003
-0.02035135 -0.1170366 1.0039999
-0.02035135 -0.1170366 1.0039999
-0.018413126 -0.1170366 1.0039999
-0.018413126 -0.1170366 1.0039999
-0.025931468 -0.11407033 0.995
-0.025931468 -0.11407033 0.995
-0.024010617 -0.11407033 0.995
-0.024010617 -0.11407033 0.995
-0.022156371 -0.11441426 0.99800003
-0.022156371 -0.11441426 0.99800003
-0.02035135 -0.11510211 1.0039999
-0.02035135 -0.11510211 1.0039999
-0.018413126 -0.11510211 1.0039999
-0.018413126 -0.11510211 1.0039999
-0.025931468 -0.11215318 0.995
-0.025931468 -0.11215318 0.995
-0.024083013 -0.11249133 0.99800003
-0.024083013 -0.11249133 0.99800003
-0.022222973 -0.11282948 1.001
-0.022222973 -0.11282948 1.001
-0.02035135 -0.11316762 1.0039999
-0.02035135 -0.11316762 1.0039999
-0.027852317 -0.11023603 0.995
-0.027852317 -0.11023603 0.995
-0.025931468 -0.11023603 0.995
-0.025931468 -0.11023603 0.995
-0.024083013 -0.1105684 0.99800003
-0.024083013 -0.1105684 0.99800003
-0.022222973 -0.11090077 1.001
-0.022222973 -0.11090077 1.001
-0.02035135 -0.11123314 1.0039999
-0.02035135 -0.11123314 1.0039999
-0.018468145 -0.11156551 1.007
-0.018468145 -0.11156551 1.007
-0.027852317 -0.10831888 0.995
-0.027852317 -0.10831888 0.995
-0.025931468 -0.10831888 0.995
-0.025931468 -0.10831888 0.995
-0.024083013 -0.10864548 0.99800003
-0.024083013 -0.10864548 0.99800003
-0.022222973 -0.10897207 1.001
-0.022222973 -0.10897207 1.001
-0.02035135 -0.10929865 1.0039999
-0.02035135 -0.10929865 1.0039999
-0.018468145 -0.10962524 1.007
-0.018468145 -0.10962524 1.007
-0.029773166 -0.10640173 0.995
-0.029773166 -0.10640173 0.995
-0.027852317 -0.10640173 0.995
-0.027852317 -0.10640173 0.995
-0.026009653 -0.10672255 0.99800003
-0.026009653 -0.10672255 0.99800003
-0.024083013 -0.10672255 0.99800003
-0.024083013 -0.10672255 0.99800003
-0.022222973 -0.10704336 1.001
-0.022222973 -0.10704336 1.001
-0.02035135 -0.10736416 1.0039999
-0.02035135 -0.10736416 1.0039999
-0.018468145 -0.10768497 1.007
-0.018468145 -0.10768497 1.007
-0.029773166 -0.10448459 0.995
-0.029773166 -0.10448459 0.995
-0.027936295 -0.10479962 0.99800003
-0.027936295 -0.10479962 0.99800003
-0.026009653 -0.10479962 0.99800003
-0.026009653 -0.10479962 0.99800003
-0.024083013 -0.10479962 0.99800003
-0.024083013 -0.10479962 0.99800003
-0.022222973 -0.10511465 1.001
-0.022222973 -0.10511465 1.001
-0.02035135 -0.10542966 1.0039999
-0.02035135 -0.10542966 1.0039999
-0.018413126 -0.10542966 1.0039999
-0.018413126 -0.10542966 1.0039999
-0.029862935 -0.10287669 0.99800003
-0.029862935 -0.10287669 0.99800003
-0.027936295 -0.10287669 0.99800003
-0.027936295 -0.10287669 0.99800003
-0.026009653 -0.10287669 0.99800003
-0.026009653 -0.10287669 0.99800003
-0.024155406 -0.10318594 1.001
-0.024155406 -0.10318594 1.001
-0.022222973 -0.10318594 1.001
-0.022222973 -0.10318594 1.001
-0.02035135 -0.10349518 1.0039999
-0.02035135 -0.10349518 1.0039999
-0.018413126 -0.10349518 1.0039999
-0.018413126 -0.10349518 1.0039999
-0.031789575 -0.10095376 0.99800003
-0.031789575 -0.10095376 0.99800003
-0.029862935 -0.10095376 0.99800003
-0.029862935 -0.10095376 0.99800003
-0.028020272 -0.10125723 1.001
-0.028020272 -0.10125723 1.001
-0.026087839 -0.10125723 1.001
-0.026087839 -0.10125723 1.001
-0.024155406 -0.10125723 1.001
-0.024155406 -0.10125723 1.001
-0.022222973 -0.10125723 1.001
-0.022222973 -0.10125723 1.001
-0.02035135 -0.10156069 1.0039999
-0.02035135 -0.10156069 1.0039999
-0.031789575 -0.09903083 0.99800003
-0.031789575 -0.09903083 0.99800003
-0.029862935 -0.09903083 0.99800003
-0.029862935 -0.09903083 0.99800003
-0.028020272 -0.099328518 1.001
-0.028020272 -0.099328518 1.001
-0.026087839 -0.099328518 1.001
-0.026087839 -0.099328518 1.001
-0.024155406 -0.099328518 1.001
-0.024155406 -0.099328518 1.001
-0.022289574 -0.099626198 1.0039999
-0.022289574 -0.099626198 1.0039999
-0.033716217 -0.097107902 0.99800003
-0.033716217 -0.097107902 0.99800003
-0.031789575 -0.097107902 0.99800003
-0.031789575 -0.097107902 0.99800003
-0.029862935 -0.097107902 0.99800003
-0.029862935 -0.097107902 0.99800003
-0.028020272 -0.097399808 1.001
-0.028020272 -0.097399808 1.001
-0.026087839 -0.097399808 1.001
-0.026087839 -0.097399808 1.001
-0.024155406 -0.097399808 1.001
-0.024155406 -0.097399808 1.001
-0.022289574 -0.097691707 1.0039999
-0.022289574 -0.097691707 1.0039999
-0.031885136 -0.095471099 1.001
-0.031885136 -0.095471099 1.001
-0.029952705 -0.095471099 1.001
-0.029952705 -0.095471099 1.001
-0.028020272 -0.095471099 1.001
-0.028020272 -0.095471099 1.001
-0.026087839 -0.095471099 1.001
-0.026087839 -0.095471099 1.001
-0.024155406 -0.095471099 1.001
-0.024155406 -0.095471099 1.001
-0.022222973 -0.095471099 1.001
-0.022222973 -0.095471099 1.001
-0.028020272 -0.093542397 1.001
-0.028020272 -0.093542397 1.001
-0.026087839 -0.093542397 1.001
-0.026087839 -0.093542397 1.001
-0.024155406 -0.093542397 1.001
-0.024155406 -0.093542397 1.001
-0.022222973 -0.093542397 1.001
-0.022222973 -0.093542397 1.001
0.0518861 -0.14723507 1.054
0.0518861 -0.14723507 1.054
0.05392085 -0.14723507 1.054
0.05392085 -0.14723507 1.054
0.04985135 -0.14520425 1.054
0.04985135 -0.14520425 1.054
0.0518861 -0.14520425 1.054
0.0518861 -0.14520425 1.054
0.05392085 -0.14520425 1.054
0.05392085 -0.14520425 1.054
0.0559556 -0.14520425 1.054
0.0559556 -0.14520425 1.054
0.05799035 -0.14520425 1.054
0.05799035 -0.14520425 1.054
0.047816604 -0.14317341 1.054
0.047816604 -0.14317341 1.054
0.04985135 -0.14317341 1.054
0.04985135 -0.14317341 1.054
0.0518861 -0.14317341 1.054
0.0518861 -0.14317341 1.054
0.054074325 -0.14358093 1.057
0.054074325 -0.14358093 1.057
0.056114867 -0.14358093 1.057
0.056114867 -0.14358093 1.057
0.058155406 -0.14358093 1.057
0.058155406 -0.14358093 1.057
0.060366791 -0.14398843 1.0599999
0.060366791 -0.14398843 1.0599999
0.04985135 -0.14114259 1.054
0.04985135 -0.14114259 1.054
0.052033786 -0.14154433 1.057
0.052033786 -0.14154433 1.057
0.054074325 -0.14154433 1.057
0.054074325 -0.14154433 1.057
0.056114867 -0.14154433 1.057
0.056114867 -0.14154433 1.057
0.058155406 -0.14154433 1.057
0.058155406 -0.14154433 1.057
0.060366791 -0.14194605 1.0599999
0.060366791 -0.14194605 1.0599999
0.062413123 -0.14194605 1.0599999
0.062413123 -0.14194605 1.0599999
0.050135132 -0.13990365 1.0599999
0.050135132 -0.13990365 1.0599999
0.052181464 -0.13990365 1.0599999
0.052181464 -0.13990365 1.0599999
0.054227795 -0.13990365 1.0599999
0.054227795 -0.13990365 1.0599999
0.056274127 -0.13990365 1.0599999
0.056274127 -0.13990365 1.0599999
0.058320459 -0.13990365 1.0599999
0.058320459 -0.13990365 1.0599999
0.060366791 -0.13990365 1.0599999
0.060366791 -0.13990365 1.0599999
0.062413123 -0.13990365 1.0599999
0.062413123 -0.13990365 1.0599999
0.064459458 -0.13990365 1.0599999
0.064459458 -0.13990365 1.0599999
0.050277025 -0.13825144 1.063
0.050277025 -0.13825144 1.063
0.052329149 -0.13825144 1.063
0.052329149 -0.13825144 1.063
0.054381274 -0.13825144 1.063
0.054381274 -0.13825144 1.063
0.056433395 -0.13825144 1.063
0.056433395 -0.13825144 1.063
0.058705602 -0.13877168 1.067
0.058705602 -0.13877168 1.067
0.060537644 -0.13825144 1.063
0.060537644 -0.13825144 1.063
0.062589765 -0.13825144 1.063
0.062589765 -0.13825144 1.063
0.064641893 -0.13825144 1.063
0.064641893 -0.13825144 1.063
0.052329149 -0.13620327 1.063
0.052329149 -0.13620327 1.063
0.054381274 -0.13620327 1.063
0.054381274 -0.13620327 1.063
0.056645755 -0.1367158 1.067
0.056645755 -0.1367158 1.067
0.058705602 -0.1367158 1.067
0.058705602 -0.1367158 1.067
0.060765445 -0.1367158 1.067
0.060765445 -0.1367158 1.067
0.062825292 -0.1367158 1.067
0.062825292 -0.1367158 1.067
0.064885139 -0.1367158 1.067
0.064885139 -0.1367158 1.067
0.054381274 -0.13415509 1.063
0.054381274 -0.13415509 1.063
0.056645755 -0.13465993 1.067
0.056645755 -0.13465993 1.067
0.058705602 -0.13465993 1.067
0.058705602 -0.13465993 1.067
0.060765445 -0.13465993 1.067
0.060765445 -0.13465993 1.067
0.062825292 -0.13465993 1.067
0.062825292 -0.13465993 1.067
0.056645755 -0.13260405 1.067
0.056645755 -0.13260405 1.067
0.058705602 -0.13260405 1.067
0.058705602 -0.13260405 1.067
0.060936298 -0.13297689 1.0700001
0.060936298 -0.13297689 1.0700001
0.063001931 -0.13297689 1.0700001
0.063001931 -0.13297689 1.0700001
0.065067574 -0.13297689 1.0700001
0.065067574 -0.13297689 1.0700001
0.023044402 -0.123 1.038
0.023044402 -0.123 1.038
-0.016573358 -0.11189788 1.01
-0.016573358 -0.11189788 1.01
-0.016573358 -0.10995183 1.01
-0.016573358 -0.10995183 1.01
-0.014666989 -0.10637476 1.013
-0.014666989 -0.10637476 1.013
-0.014710425 -0.10473218 1.016
-0.014710425 -0.10473218 1.016
0.068746135 -0.1546368 1.063
0.068746135 -0.1546368 1.063
0.070798263 -0.1546368 1.063
0.070798263 -0.1546368 1.063
0.064277031 -0.15172736 1.057
0.064277031 -0.15172736 1.057
0.06650579 -0.15215799 1.0599999
0.06650579 -0.15215799 1.0599999
0.068746135 -0.15258862 1.063
0.068746135 -0.15258862 1.063
0.070798263 -0.15258862 1.063
0.070798263 -0.15258862 1.063
0.06650579 -0.15011559 1.0599999
0.06650579 -0.15011559 1.0599999
0.068746135 -0.15054046 1.063
0.068746135 -0.15054046 1.063
0.065067574 -0.13503854 1.0700001
0.065067574 -0.13503854 1.0700001
0.05799035 -0.14723507 1.054
0.05799035 -0.14723507 1.054
0.060025096 -0.14723507 1.054
0.060025096 -0.14723507 1.054
0.068746135 -0.14849229 1.063
0.068746135 -0.14849229 1.063
0.064277031 -0.14765415 1.057
0.064277031 -0.14765415 1.057
0.064277031 -0.14969076 1.057
0.064277031 -0.14969076 1.057
0.06650579 -0.14807321 1.0599999
0.06650579 -0.14807321 1.0599999
0.015028957 -0.111 1.038
0.015028957 -0.111 1.038
0.017032819 -0.111 1.038
0.017032819 -0.111 1.038
0.015028957 -0.109 1.038
0.015028957 -0.109 1.038
0.017032819 -0.109 1.038
0.017032819 -0.109 1.038
0.015028957 -0.107 1.038
0.015028957 -0.107 1.038
-0.022156371 -0.12018305 0.99800003
-0.022156371 -0.12018305 0.99800003
0.027469112 -0.10864933 1.054
0.027469112 -0.10864933 1.054
-0.01652413 -0.11544605 1.007
-0.01652413 -0.11544605 1.007
-0.018468145 -0.11350577 1.007
-0.018468145 -0.11350577 1.007
-0.01652413 -0.11350577 1.007
-0.01652413 -0.11350577 1.007
0.023111004 -0.12134971 1.041
0.023111004 -0.12134971 1.041
0.021101352 -0.11934393 1.041
0.021101352 -0.11934393 1.041
0.027052123 -0.133 1.038
0.027052123 -0.133 1.038
-0.016474903 -0.12477456 1.0039999
-0.016474903 -0.12477456 1.0039999
-0.014536679 -0.12477456 1.0039999
-0.014536679 -0.12477456 1.0039999
-0.012598455 -0.12477456 1.0039999
-0.012598455 -0.12477456 1.0039999
0.062059846 -0.1492659 1.054
0.062059846 -0.1492659 1.054
0.023177607 -0.11968786 1.044
0.023177607 -0.11968786 1.044
0.021162163 -0.1176763 1.044
0.021162163 -0.1176763 1.044
0.021162163 -0.11566474 1.044
0.021162163 -0.11566474 1.044
0.020959461 -0.12053372 1.034
0.020959461 -0.12053372 1.034
0.019036679 -0.113 1.038
0.019036679 -0.113 1.038
0.017082047 -0.10730925 1.041
0.017082047 -0.10730925 1.041
0.062236488 -0.14765415 1.057
0.062236488 -0.14765415 1.057
0.062059846 -0.15129672 1.054
0.062059846 -0.15129672 1.054
-0.01652413 -0.11738632 1.007
-0.01652413 -0.11738632 1.007
-0.014580116 -0.11738632 1.007
-0.014580116 -0.11738632 1.007
0.077244207 -0.16138633 1.067
0.077244207 -0.16138633 1.067
0.079304054 -0.16138633 1.067
0.079304054 -0.16138633 1.067
0.072850384 -0.15873313 1.063
0.072850384 -0.15873313 1.063
0.074902505 -0.15873313 1.063
0.074902505 -0.15873313 1.063
0.077244207 -0.15933044 1.067
0.077244207 -0.15933044 1.067
0.079304054 -0.15933044 1.067
0.079304054 -0.15933044 1.067
0.081363901 -0.15933044 1.067
0.081363901 -0.15933044 1.067
0.068746135 -0.15668496 1.063
0.068746135 -0.15668496 1.063
0.070798263 -0.15668496 1.063
0.070798263 -0.15668496 1.063
0.072850384 -0.15668496 1.063
0.072850384 -0.15668496 1.063
0.075184368 -0.15727457 1.067
0.075184368 -0.15727457 1.067
0.064459458 -0.15420038 1.0599999
0.064459458 -0.15420038 1.0599999
0.06650579 -0.15420038 1.0599999
0.06650579 -0.15420038 1.0599999
-0.01835811 -0.12633045 1.001
-0.01835811 -0.12633045 1.001
0.024951739 -0.13049519 1.034
0.024951739 -0.13049519 1.034
0.060025096 -0.1492659 1.054
0.060025096 -0.1492659 1.054
0.060195949 -0.14561754 1.057
0.060195949 -0.14561754 1.057
0.064277031 -0.14561754 1.057
0.064277031 -0.14561754 1.057
0.0088783782 -0.12898073 1.022
0.0088783782 -0.12898073 1.022
0.0088783782 -0.12701155 1.022
0.0088783782 -0.12701155 1.022
0.029139962 -0.13338439 1.041
0.029139962 -0.13338439 1.041
0.027130309 -0.13137862 1.041
0.027130309 -0.13137862 1.041
0.029139962 -0.13137862 1.041
0.029139962 -0.13137862 1.041
0.074902505 -0.16282947 1.063
0.074902505 -0.16282947 1.063
0.077244207 -0.16344219 1.067
0.077244207 -0.16344219 1.067
0.079304054 -0.16344219 1.067
0.079304054 -0.16344219 1.067
0.072850384 -0.16078131 1.063
0.072850384 -0.16078131 1.063
0.074902505 -0.16078131 1.063
0.074902505 -0.16078131 1.063
0.070598453 -0.15828516 1.0599999
0.070598453 -0.15828516 1.0599999
0.0068851355 -0.13056552 1.0190001
0.0068851355 -0.13056552 1.0190001
0.012824324 -0.13488825 1.022
0.012824324 -0.13488825 1.022
0.014797296 -0.13488825 1.022
0.014797296 -0.13488825 1.022
0.016819498 -0.1352842 1.025
0.016819498 -0.1352842 1.025
0.016819498 -0.13330925 1.025
0.016819498 -0.13330925 1.025
0.025193051 -0.12572254 1.044
0.025193051 -0.12572254 1.044
0.025193051 -0.12371098 1.044
0.025193051 -0.12371098 1.044
0.0088783782 -0.1309499 1.022
0.0088783782 -0.1309499 1.022
0.030940156 -0.14244895 1.034
0.030940156 -0.14244895 1.034
0.026791506 -0.13766089 1.028
0.026791506 -0.13766089 1.028
0.02480695 -0.13568015 1.028
0.02480695 -0.13568015 1.028
0.062236488 -0.14561754 1.057
0.062236488 -0.14561754 1.057
-0.01835811 -0.12440174 1.001
-0.01835811 -0.12440174 1.001
0.062413123 -0.14398843 1.0599999
0.062413123 -0.14398843 1.0599999
0.064459458 -0.14194605 1.0599999
0.064459458 -0.14194605 1.0599999
0.024879344 -0.13210309 1.031
0.024879344 -0.13210309 1.031
0.01278668 -0.13645568 1.0190001
0.01278668 -0.13645568 1.0190001
0.014797296 -0.13685741 1.022
0.014797296 -0.13685741 1.022
0.01677027 -0.13685741 1.022
0.01677027 -0.13685741 1.022
