# .PCD v0.7 - Point Cloud Data file format
VERSION 0.7
FIELDS x y z
SIZE 4 4 4
TYPE F F F
COUNT 1 1 1
WIDTH 323
HEIGHT 1
VIEWPOINT 0 0 0 1 0 0 0
POINTS 323
DATA ascii
-0.41103283 0.080356456 0.87800002
-0.41103283 0.08204817 0.87800002
-0.40933785 0.08204817 0.87800002
-0.40764287 0.08204817 0.87800002
-0.40594789 0.08204817 0.87800002
-0.40425292 0.08204817 0.87800002
-0.40255794 0.08204817 0.87800002
-0.40086293 0.08204817 0.87800002
-0.39916795 0.08204817 0.87800002
-0.39747298 0.08204817 0.87800002
-0.395778 0.08204817 0.87800002
-0.39408302 0.08204817 0.87800002
-0.39417568 0.082421966 0.88200003
-0.39039093 0.082702309 0.88499999
-0.40933785 0.083739884 0.87800002
-0.40764287 0.083739884 0.87800002
-0.40594789 0.083739884 0.87800002
-0.40425292 0.083739884 0.87800002
-0.40255794 0.083739884 0.87800002
-0.40086293 0.083739884 0.87800002
-0.39916795 0.083739884 0.87800002
-0.39747298 0.083739884 0.87800002
-0.395778 0.083739884 0.87800002
-0.39408302 0.083739884 0.87800002
-0.39328185 0.083930634 0.88
-0.39247298 0.084121391 0.88200003
-0.39209941 0.084407516 0.88499999
-0.39039093 0.084407516 0.88499999
-0.40933785 0.085431598 0.87800002
-0.40764287 0.085431598 0.87800002
-0.40594789 0.085431598 0.87800002
-0.40425292 0.085431598 0.87800002
-0.40255794 0.085431598 0.87800002
-0.40086293 0.085431598 0.87800002
-0.40007722 0.085626207 0.88
-0.39837837 0.085626207 0.88
-0.39667952 0.085626207 0.88
-0.3949807 0.085626207 0.88
-0.39328185 0.085626207 0.88
-0.39247298 0.085820809 0.88200003
-0.39077029 0.085820809 0.88200003
-0.38906759 0.085820809 0.88200003
-0.38736486 0.085820809 0.88200003
-0.38566217 0.085820809 0.88200003
-0.41027027 0.087321773 0.88
-0.40857142 0.087321773 0.88
-0.40687257 0.087321773 0.88
-0.40517375 0.087321773 0.88
-0.4034749 0.087321773 0.88
-0.40177605 0.087321773 0.88
-0.40098649 0.087520234 0.88200003
-0.3992838 0.087520234 0.88200003
-0.3975811 0.087520234 0.88200003
-0.3972249 0.087817915 0.88499999
-0.3955164 0.087817915 0.88499999
-0.39380792 0.087817915 0.88499999
-0.39077029 0.087520234 0.88200003
-0.38906759 0.087520234 0.88200003
-0.38736486 0.087520234 0.88200003
-0.38566217 0.087520234 0.88200003
-0.41120273 0.08921966 0.88200003
-0.4095 0.08921966 0.88200003
-0.40779731 0.08921966 0.88200003
-0.40609461 0.08921966 0.88200003
-0.40439191 0.08921966 0.88200003
-0.40268919 0.08921966 0.88200003
-0.4023504 0.089523122 0.88499999
-0.40064189 0.089523122 0.88499999
-0.39893338 0.089523122 0.88499999
-0.3972249 0.089523122 0.88499999
-0.3955164 0.089523122 0.88499999
-0.39380792 0.089523122 0.88499999
-0.39209941 0.089523122 0.88499999
-0.41430983 0.091228321 0.88499999
-0.41260135 0.091228321 0.88499999
-0.41089284 0.091228321 0.88499999
-0.40918437 0.091228321 0.88499999
-0.40747586 0.091228321 0.88499999
-0.40576738 0.091228321 0.88499999
-0.40405887 0.091228321 0.88499999
-0.4023504 0.091228321 0.88499999
-0.40064189 0.091228321 0.88499999
-0.39893338 0.091228321 0.88499999
-0.3972249 0.091228321 0.88499999
-0.39641026 0.091434494 0.88700002
-0.39380792 0.091228321 0.88499999
-0.41430983 0.092933528 0.88499999
-0.41260135 0.092933528 0.88499999
-0.41089284 0.092933528 0.88499999
-0.40918437 0.092933528 0.88499999
-0.40747586 0.092933528 0.88499999
-0.40576738 0.092933528 0.88499999
-0.40405887 0.092933528 0.88499999
-0.4023504 0.092933528 0.88499999
-0.40154731 0.093143545 0.88700002
-0.39983496 0.093143545 0.88700002
-0.39812261 0.093143545 0.88700002
-0.39641026 0.093143545 0.88700002
-0.39469787 0.093143545 0.88700002
-0.41430983 0.094638728 0.88499999
-0.41260135 0.094638728 0.88499999
-0.41089284 0.094638728 0.88499999
-0.40918437 0.094638728 0.88499999
-0.40839672 0.094852604 0.88700002
-0.40576738 0.094638728 0.88499999
-0.40405887 0.094638728 0.88499999
-0.40325966 0.094852604 0.88700002
-0.40154731 0.094852604 0.88700002
-0.39983496 0.094852604 0.88700002
-0.39812261 0.094852604 0.88700002
-0.39641026 0.094852604 0.88700002
-0.39469787 0.094852604 0.88700002
-0.41524616 0.096561663 0.88700002
-0.41353381 0.096561663 0.88700002
-0.41182142 0.096561663 0.88700002
-0.41010907 0.096561663 0.88700002
-0.40839672 0.096561663 0.88700002
-0.40668437 0.096561663 0.88700002
-0.40497202 0.096561663 0.88700002
-0.40325966 0.096561663 0.88700002
-0.40154731 0.096561663 0.88700002
-0.39983496 0.096561663 0.88700002
-0.39812261 0.096561663 0.88700002
-0.39641026 0.096561663 0.88700002
-0.39469787 0.096561663 0.88700002
-0.39298552 0.096561663 0.88700002
-0.41618243 0.098492295 0.889
-0.4144662 0.098492295 0.889
-0.41182142 0.098270714 0.88700002
-0.41010907 0.098270714 0.88700002
-0.40839672 0.098270714 0.88700002
-0.40668437 0.098270714 0.88700002
-0.40497202 0.098270714 0.88700002
-0.40325966 0.098270714 0.88700002
-0.40154731 0.098270714 0.88700002
-0.39983496 0.098270714 0.88700002
-0.39812261 0.098270714 0.88700002
-0.39641026 0.098270714 0.88700002
-0.39469787 0.098270714 0.88700002
-0.39298552 0.098270714 0.88700002
-0.41524616 0.099979773 0.88700002
-0.41353381 0.099979773 0.88700002
-0.41182142 0.099979773 0.88700002
-0.41010907 0.099979773 0.88700002
-0.40839672 0.099979773 0.88700002
-0.40668437 0.099979773 0.88700002
-0.40497202 0.099979773 0.88700002
-0.40325966 0.099979773 0.88700002
-0.40154731 0.099979773 0.88700002
-0.39983496 0.099979773 0.88700002
-0.39902028 0.10020521 0.889
-0.39641026 0.099979773 0.88700002
-0.39469787 0.099979773 0.88700002
-0.39475772 0.10043063 0.89099997
-0.39303765 0.10043063 0.89099997
-0.39131755 0.10043063 0.89099997
-0.41524616 0.10168882 0.88700002
-0.41353381 0.10168882 0.88700002
-0.41182142 0.10168882 0.88700002
-0.41103378 0.10191811 0.889
-0.40931755 0.10191811 0.889
-0.40760136 0.10191811 0.889
-0.40588513 0.10191811 0.889
-0.4041689 0.10191811 0.889
-0.40245271 0.10191811 0.889
-0.40073648 0.10191811 0.889
-0.39902028 0.10191811 0.889
-0.39819786 0.10214739 0.89099997
-0.39647779 0.10214739 0.89099997
-0.39608687 0.10249133 0.89399999
-0.39303765 0.10214739 0.89099997
-0.39131755 0.10214739 0.89099997
-0.38959748 0.10214739 0.89099997
-0.41618243 0.10363102 0.889
-0.41353381 0.10339788 0.88700002
-0.41182142 0.10339788 0.88700002
-0.41103378 0.10363102 0.889
-0.40931755 0.10363102 0.889
-0.40760136 0.10363102 0.889
-0.40588513 0.10363102 0.889
-0.4041689 0.10363102 0.889
-0.40245271 0.10363102 0.889
-0.40073648 0.10363102 0.889
-0.39991793 0.10386416 0.89099997
-0.39819786 0.10386416 0.89099997
-0.39781272 0.10421387 0.89399999
-0.39608687 0.10421387 0.89399999
-0.39303765 0.10386416 0.89099997
-0.39043918 0.10363102 0.889
-0.38872299 0.10363102 0.889
-0.41618243 0.10534393 0.889
-0.4144662 0.10534393 0.889
-0.41275001 0.10534393 0.889
-0.41103378 0.10534393 0.889
-0.40931755 0.10534393 0.889
-0.40851831 0.10558092 0.89099997
-0.40679824 0.10558092 0.89099997
-0.40507817 0.10558092 0.89099997
-0.4033581 0.10558092 0.89099997
-0.40163803 0.10558092 0.89099997
-0.40126449 0.10593642 0.89399999
-0.39953861 0.10593642 0.89399999
-0.39781272 0.10593642 0.89399999
-0.39608687 0.10593642 0.89399999
-0.39303765 0.10558092 0.89099997
-0.39043918 0.10534393 0.889
-0.38872299 0.10534393 0.889
-0.4171187 0.10729768 0.89099997
-0.4144662 0.10705684 0.889
-0.41275001 0.10705684 0.889
-0.41195849 0.10729768 0.89099997
-0.41023842 0.10729768 0.89099997
-0.40851831 0.10729768 0.89099997
-0.40679824 0.10729768 0.89099997
-0.40644208 0.10765896 0.89399999
-0.40471622 0.10765896 0.89399999
-0.40299034 0.10765896 0.89399999
-0.40126449 0.10765896 0.89399999
-0.39953861 0.10765896 0.89399999
-0.39870271 0.10789981 0.89600003
-0.39697298 0.10789981 0.89600003
-0.39436099 0.10765896 0.89399999
-0.39263514 0.10765896 0.89399999
-0.3891834 0.10765896 0.89399999
-0.41539863 0.10901444 0.89099997
-0.41367856 0.10901444 0.89099997
-0.41334555 0.1093815 0.89399999
-0.41161969 0.1093815 0.89399999
-0.40989381 0.1093815 0.89399999
-0.40816796 0.1093815 0.89399999
-0.40644208 0.1093815 0.89399999
-0.40471622 0.1093815 0.89399999
-0.40299034 0.1093815 0.89399999
-0.40126449 0.1093815 0.89399999
-0.39953861 0.1093815 0.89399999
-0.39870271 0.10962621 0.89600003
-0.39697298 0.10962621 0.89600003
-0.39436099 0.1093815 0.89399999
-0.39263514 0.1093815 0.89399999
-0.39090925 0.1093815 0.89399999
-0.41866216 0.11160116 0.898
-0.41600001 0.11135261 0.89600003
-0.41334555 0.11110405 0.89399999
-0.41161969 0.11110405 0.89399999
-0.40989381 0.11110405 0.89399999
-0.40816796 0.11110405 0.89399999
-0.40644208 0.11110405 0.89399999
-0.40471622 0.11110405 0.89399999
-0.40299034 0.11110405 0.89399999
-0.40216216 0.11135261 0.89600003
-0.40043244 0.11135261 0.89600003
-0.39870271 0.11135261 0.89600003
-0.39697298 0.11135261 0.89600003
-0.39436099 0.11110405 0.89399999
-0.39263514 0.11110405 0.89399999
-0.41866216 0.11333141 0.898
-0.41600001 0.113079 0.89600003
-0.41427028 0.113079 0.89600003
-0.41254056 0.113079 0.89600003
-0.41081083 0.113079 0.89600003
-0.4090811 0.113079 0.89600003
-0.40735137 0.113079 0.89600003
-0.40562165 0.113079 0.89600003
-0.40389189 0.113079 0.89600003
-0.40216216 0.113079 0.89600003
-0.40043244 0.113079 0.89600003
-0.39870271 0.113079 0.89600003
-0.39697298 0.113079 0.89600003
-0.39436099 0.11282659 0.89399999
-0.39263514 0.11282659 0.89399999
-0.39090925 0.11282659 0.89399999
-0.41692856 0.11506166 0.898
-0.41427028 0.1148054 0.89600003
-0.41254056 0.1148054 0.89600003
-0.41081083 0.1148054 0.89600003
-0.4090811 0.1148054 0.89600003
-0.40735137 0.1148054 0.89600003
-0.40562165 0.1148054 0.89600003
-0.40389189 0.1148054 0.89600003
-0.40216216 0.1148054 0.89600003
-0.40043244 0.1148054 0.89600003
-0.39959267 0.11506166 0.898
-0.39785907 0.11506166 0.898
-0.39524326 0.1148054 0.89600003
-0.39351353 0.1148054 0.89600003
-0.3917838 0.1148054 0.89600003
-0.41427028 0.1165318 0.89600003
-0.41254056 0.1165318 0.89600003
-0.41081083 0.1165318 0.89600003
-0.40999421 0.11679191 0.898
-0.40826061 0.11679191 0.898
-0.40562165 0.1165318 0.89600003
-0.40389189 0.1165318 0.89600003
-0.40216216 0.1165318 0.89600003
-0.40043244 0.1165318 0.89600003
-0.39959267 0.11679191 0.898
-0.39697298 0.1165318 0.89600003
-0.39524326 0.1165318 0.89600003
-0.41427028 0.11825819 0.89600003
-0.41254056 0.11825819 0.89600003
-0.41081083 0.11825819 0.89600003
-0.4090811 0.11825819 0.89600003
-0.40735137 0.11825819 0.89600003
-0.40562165 0.11825819 0.89600003
-0.40389189 0.11825819 0.89600003
-0.40216216 0.11825819 0.89600003
-0.40043244 0.11825819 0.89600003
-0.39959267 0.11852216 0.898
-0.39697298 0.11825819 0.89600003
-0.41254056 0.11998459 0.89600003
-0.41081083 0.11998459 0.89600003
-0.4090811 0.11998459 0.89600003
-0.40735137 0.11998459 0.89600003
-0.40562165 0.11998459 0.89600003
-0.40389189 0.11998459 0.89600003
-0.40216216 0.11998459 0.89600003
-0.40043244 0.11998459 0.89600003
-0.40999421 0.12198266 0.898
-0.40826061 0.12198266 0.898
-0.40652704 0.12198266 0.898
-0.40389189 0.12171099 0.89600003
-0.40826061 0.12371291 0.898
-0.40652704 0.12371291 0.898
