# .PCD v0.7 - Point Cloud Data file format
VERSION 0.7
FIELDS x y z
SIZE 4 4 4
TYPE F F F
COUNT 1 1 1
WIDTH 1385
HEIGHT 1
VIEWPOINT 0 0 0 1 0 0 0
POINTS 1385
DATA ascii
-0.39430502 0.052196532 0.86000001
-0.39430502 0.052196532 0.86000001
-0.39264479 0.052196532 0.86000001
-0.39264479 0.052196532 0.86000001
-0.39430502 0.053853564 0.86000001
-0.39430502 0.053853564 0.86000001
-0.39264479 0.053853564 0.86000001
-0.39264479 0.053853564 0.86000001
-0.39007527 0.053728323 0.85799998
-0.39007527 0.053728323 0.85799998
-0.38841891 0.053728323 0.85799998
-0.38841891 0.053728323 0.85799998
-0.41185233 0.062789015 0.86900002
-0.41185233 0.062789015 0.86900002
-0.41185233 0.064463392 0.86900002
-0.41185233 0.064463392 0.86900002
-0.40332144 0.033613682 0.85100001
-0.40332144 0.033613682 0.85100001
-0.40003571 0.033613682 0.85100001
-0.40003571 0.033613682 0.85100001
-0.41615444 0.055768788 0.86400002
-0.41615444 0.055768788 0.86400002
-0.39338803 0.032236993 0.85799998
-0.39338803 0.032236993 0.85799998
-0.39814863 0.033732176 0.85399997
-0.39814863 0.033732176 0.85399997
-0.3934643 0.033613682 0.85100001
-0.3934643 0.033613682 0.85100001
-0.39182144 0.033613682 0.85100001
-0.39182144 0.033613682 0.85100001
-0.39338803 0.040502891 0.85799998
-0.39338803 0.040502891 0.85799998
-0.39173165 0.038849711 0.85799998
-0.39173165 0.038849711 0.85799998
-0.39173165 0.040502891 0.85799998
-0.39173165 0.040502891 0.85799998
-0.40853474 0.050657034 0.86199999
-0.40853474 0.050657034 0.86199999
-0.4111506 0.052439306 0.86400002
-0.4111506 0.052439306 0.86400002
-0.41281855 0.054104049 0.86400002
-0.41281855 0.054104049 0.86400002
-0.41281855 0.055768788 0.86400002
-0.41281855 0.055768788 0.86400002
-0.4111506 0.054104049 0.86400002
-0.4111506 0.054104049 0.86400002
-0.41352701 0.057300579 0.86199999
-0.41352701 0.057300579 0.86199999
-0.40948263 0.052439306 0.86400002
-0.40948263 0.052439306 0.86400002
-0.4111506 0.055768788 0.86400002
-0.4111506 0.055768788 0.86400002
-0.39253956 0.031898841 0.84899998
-0.39253956 0.031898841 0.84899998
-0.39090058 0.031898841 0.84899998
-0.39090058 0.031898841 0.84899998
-0.45456949 -0.016803468 0.91799998
-0.45279729 -0.016803468 0.91799998
-0.45200774 -0.016840078 0.92000002
-0.44925287 -0.016803468 0.91799998
-0.44601834 -0.016748555 0.91500002
-0.44425195 -0.016748555 0.91500002
-0.44248554 -0.016748555 0.91500002
-0.44071913 -0.016748555 0.91500002
-0.45485041 -0.014985549 0.91500002
-0.45308399 -0.014985549 0.91500002
-0.45131758 -0.014985549 0.91500002
-0.44856852 -0.014952794 0.91299999
-0.44533786 -0.014903661 0.91000003
-0.4435811 -0.014903661 0.91000003
-0.44328088 -0.014952794 0.91299999
-0.44151834 -0.014952794 0.91299999
-0.4397558 -0.014952794 0.91299999
-0.43799323 -0.014952794 0.91299999
-0.45587838 -0.01315029 0.91000003
-0.45412165 -0.01315029 0.91000003
-0.45236489 -0.01315029 0.91000003
-0.45060813 -0.01315029 0.91000003
-0.44786486 -0.013121387 0.90799999
-0.44611198 -0.013121387 0.90799999
-0.44435906 -0.013121387 0.90799999
-0.44260618 -0.013121387 0.90799999
-0.44182435 -0.01315029 0.91000003
-0.43910038 -0.013121387 0.90799999
-0.4373475 -0.013121387 0.90799999
-0.43655407 -0.01315029 0.91000003
-0.42938805 -0.013092486 0.90600002
-0.45838225 -0.011371869 0.90799999
-0.45662934 -0.011371869 0.90799999
-0.45387453 -0.011346821 0.90600002
-0.45212549 -0.011346821 0.90600002
-0.45037645 -0.011346821 0.90600002
-0.44862741 -0.011346821 0.90600002
-0.44687837 -0.011346821 0.90600002
-0.44512936 -0.011346821 0.90600002
-0.44338033 -0.011346821 0.90600002
-0.44260618 -0.011371869 0.90799999
-0.44085327 -0.011371869 0.90799999
-0.43813321 -0.011346821 0.90600002
-0.43638417 -0.011346821 0.90600002
-0.43319595 -0.011309248 0.903
-0.43145269 -0.011309248 0.903
-0.43113708 -0.011346821 0.90600002
-0.42527896 -0.0112842 0.90100002
-0.45585811 -0.0095693637 0.903
-0.45411485 -0.0095693637 0.903
-0.45237163 -0.0095693637 0.903
-0.45062837 -0.0095693637 0.903
-0.44888514 -0.0095693637 0.903
-0.44714189 -0.0095693637 0.903
-0.44539866 -0.0095693637 0.903
-0.4436554 -0.0095693637 0.903
-0.44191217 -0.0095693637 0.903
-0.44163129 -0.0096011562 0.90600002
-0.43988225 -0.0096011562 0.90600002
-0.43668243 -0.0095693637 0.903
-0.43493918 -0.0095693637 0.903
-0.43319595 -0.0095693637 0.903
-0.43145269 -0.0095693637 0.903
-0.42875773 -0.0095481696 0.90100002
-0.42701834 -0.0095481696 0.90100002
-0.42527896 -0.0095481696 0.90100002
-0.45585811 -0.0078294799 0.903
-0.45411485 -0.0078294799 0.903
-0.45237163 -0.0078294799 0.903
-0.45062837 -0.0078294799 0.903
-0.44888514 -0.0078294799 0.903
-0.44714189 -0.0078294799 0.903
-0.44539866 -0.0078294799 0.903
-0.4436554 -0.0078294799 0.903
-0.44191217 -0.0078294799 0.903
-0.44016892 -0.0078294799 0.903
-0.43842566 -0.0078294799 0.903
-0.43668243 -0.0078294799 0.903
-0.43493918 -0.0078294799 0.903
-0.43223649 -0.0078121391 0.90100002
-0.43049711 -0.0078121391 0.90100002
-0.42875773 -0.0078121391 0.90100002
-0.42559654 -0.0077861273 0.898
-0.42386293 -0.0077861273 0.898
-0.42212933 -0.0077861273 0.898
-0.45310909 -0.0060761082 0.90100002
-0.4513697 -0.0060761082 0.90100002
-0.44963032 -0.0060761082 0.90100002
-0.44789094 -0.0060761082 0.90100002
-0.44615155 -0.0060761082 0.90100002
-0.44441217 -0.0060761082 0.90100002
-0.44267279 -0.0060761082 0.90100002
-0.44093341 -0.0060761082 0.90100002
-0.43919402 -0.0060761082 0.90100002
-0.43745464 -0.0060761082 0.90100002
-0.43571526 -0.0060761082 0.90100002
-0.43397588 -0.0060761082 0.90100002
-0.43079731 -0.0060558766 0.898
-0.42906371 -0.0060558766 0.898
-0.42733011 -0.0060558766 0.898
-0.42464867 -0.0060423892 0.89600003
-0.42291895 -0.0060423892 0.89600003
-0.42118919 -0.0060423892 0.89600003
-0.45160037 -0.0043256264 0.898
-0.44886488 -0.0043159924 0.89600003
-0.44639963 -0.0043256264 0.898
-0.4436757 -0.0043159924 0.89600003
-0.44194597 -0.0043159924 0.89600003
-0.44021624 -0.0043159924 0.89600003
-0.43946525 -0.0043256264 0.898
-0.43773165 -0.0043256264 0.898
-0.43599808 -0.0043256264 0.898
-0.43426448 -0.0043256264 0.898
-0.43253088 -0.0043256264 0.898
-0.42983785 -0.0043159924 0.89600003
-0.42810813 -0.0043159924 0.89600003
-0.4263784 -0.0043159924 0.89600003
-0.42370078 -0.0043063583 0.89399999
-0.4219749 -0.0043063583 0.89399999
-0.42024904 -0.0043063583 0.89399999
-0.45160037 -0.0025953758 0.898
-0.44786292 -0.002583815 0.89399999
-0.44613707 -0.002583815 0.89399999
-0.44441119 -0.002583815 0.89399999
-0.44268534 -0.002583815 0.89399999
-0.44095945 -0.002583815 0.89399999
-0.4392336 -0.002583815 0.89399999
-0.43750772 -0.002583815 0.89399999
-0.43675676 -0.0025895955 0.89600003
-0.43502703 -0.0025895955 0.89600003
-0.43329731 -0.0025895955 0.89600003
-0.43060425 -0.002583815 0.89399999
-0.42887837 -0.002583815 0.89399999
-0.42715251 -0.002583815 0.89399999
-0.42399901 -0.0025751444 0.89099997
-0.42227894 -0.0025751444 0.89099997
-0.42055887 -0.0025751444 0.89099997
-0.4188388 -0.0025751444 0.89099997
-0.44613707 -0.00086127169 0.89399999
-0.44441119 -0.00086127169 0.89399999
-0.44268534 -0.00086127169 0.89399999
-0.44095945 -0.00086127169 0.89399999
-0.4392336 -0.00086127169 0.89399999
-0.43750772 -0.00086127169 0.89399999
-0.43578184 -0.00086127169 0.89399999
-0.43405598 -0.00086127169 0.89399999
-0.4323301 -0.00086127169 0.89399999
-0.43060425 -0.00086127169 0.89399999
-0.42743918 -0.00085838145 0.89099997
-0.42571911 -0.00085838145 0.89099997
-0.4230473 -0.00085645472 0.889
-0.42133108 -0.00085645472 0.889
-0.41961485 -0.00085645472 0.889
-0.41789865 -0.00085645472 0.889
-0.44119978 0.00085838145 0.89099997
-0.43947971 0.00085838145 0.89099997
-0.43775964 0.00085838145 0.89099997
-0.43603957 0.00085838145 0.89099997
-0.4343195 0.00085838145 0.89099997
-0.4325994 0.00085838145 0.89099997
-0.43087932 0.00085838145 0.89099997
-0.42915925 0.00085838145 0.89099997
-0.42647973 0.00085645472 0.889
-0.42380792 0.00085452799 0.88700002
-0.42209557 0.00085452799 0.88700002
-0.42038321 0.00085452799 0.88700002
-0.41961485 0.00085645472 0.889
-0.41789865 0.00085645472 0.889
-0.43947971 0.0025751444 0.89099997
-0.42312163 0.002549133 0.88200003
-0.42046332 0.0025433525 0.88
-0.41867086 0.0025635839 0.88700002
-0.42555985 0.0042389208 0.88
-0.423861 0.0042389208 0.88
-0.42120272 0.0042292872 0.87800002
-0.42652026 0.0059007709 0.875
-0.42483109 0.0059007709 0.875
-0.4231419 0.0059007709 0.875
-0.4228977 0.005921002 0.87800002
-0.42120272 0.005921002 0.87800002
-0.42652026 0.007586705 0.875
-0.42483109 0.007586705 0.875
-0.4231419 0.007586705 0.875
-0.4214527 0.007586705 0.875
-0.42652026 0.0092726396 0.875
-0.42483109 0.0092726396 0.875
-0.4231419 0.0092726396 0.875
-0.4214527 0.0092726396 0.875
-0.42820945 0.010958574 0.875
-0.42554536 0.010933527 0.87300003
-0.42386004 0.010933527 0.87300003
-0.42217472 0.010933527 0.87300003
-0.42793339 0.012586705 0.87099999
-0.42625192 0.012586705 0.87099999
-0.42457047 0.012586705 0.87099999
-0.42288899 0.012586705 0.87099999
-0.42695078 0.014232177 0.86900002
-0.42527318 0.014232177 0.86900002
-0.42359558 0.014232177 0.86900002
-0.42191797 0.014232177 0.86900002
-0.42596814 0.015869942 0.86699998
-0.42429438 0.015869942 0.86699998
-0.42262065 0.015869942 0.86699998
-0.42282626 0.01747977 0.86400002
-0.42115831 0.01747977 0.86400002
-0.41949037 0.01747977 0.86400002
-0.41685522 0.017439306 0.86199999
-0.41422781 0.017398844 0.86000001
-0.41256759 0.017398844 0.86000001
-0.41090733 0.017398844 0.86000001
-0.41019884 0.017439306 0.86199999
-0.40853474 0.017439306 0.86199999
-0.40687066 0.017439306 0.86199999
-0.40520656 0.017439306 0.86199999
-0.40354246 0.017439306 0.86199999
-0.40094596 0.017398844 0.86000001
-0.39835712 0.017358381 0.85799998
-0.39670077 0.017358381 0.85799998
-0.39504439 0.017358381 0.85799998
-0.39338803 0.017358381 0.85799998
-0.41754827 0.019055877 0.86000001
-0.41588804 0.019055877 0.86000001
-0.41422781 0.019055877 0.86000001
-0.41256759 0.019055877 0.86000001
-0.41090733 0.019055877 0.86000001
-0.4092471 0.019055877 0.86000001
-0.40663898 0.019011561 0.85799998
-0.40498263 0.019011561 0.85799998
-0.40332624 0.019011561 0.85799998
-0.40260619 0.019055877 0.86000001
-0.40001351 0.019011561 0.85799998
-0.4116081 0.020664738 0.85799998
-0.40995172 0.020664738 0.85799998
-0.40829536 0.020664738 0.85799998
-0.40663898 0.020664738 0.85799998
-0.40498263 0.020664738 0.85799998
-0.40332624 0.020664738 0.85799998
-0.41524616 0.00085452799 0.88700002
-0.41524616 0.00085452799 0.88700002
-0.41353381 0.00085452799 0.88700002
-0.41353381 0.00085452799 0.88700002
-0.41876447 0.0025433525 0.88
-0.41876447 0.0025433525 0.88
-0.41801351 0.002549133 0.88200003
-0.41801351 0.002549133 0.88200003
-0.41695851 0.0025635839 0.88700002
-0.41695851 0.0025635839 0.88700002
-0.41524616 0.0025635839 0.88700002
-0.41524616 0.0025635839 0.88700002
-0.41950774 0.0042292872 0.87800002
-0.41950774 0.0042292872 0.87800002
-0.41876447 0.0042389208 0.88
-0.41876447 0.0042389208 0.88
-0.41706562 0.0042389208 0.88
-0.41706562 0.0042389208 0.88
-0.41631082 0.0042485553 0.88200003
-0.41631082 0.0042485553 0.88200003
-0.41601834 0.0042630057 0.88499999
-0.41601834 0.0042630057 0.88499999
-0.41430983 0.0042630057 0.88499999
-0.41430983 0.0042630057 0.88499999
-0.41950774 0.005921002 0.87800002
-0.41950774 0.005921002 0.87800002
-0.41781276 0.005921002 0.87800002
-0.41781276 0.005921002 0.87800002
-0.41611776 0.005921002 0.87800002
-0.41611776 0.005921002 0.87800002
-0.41442278 0.005921002 0.87800002
-0.41442278 0.005921002 0.87800002
-0.41460812 0.0059479773 0.88200003
-0.41460812 0.0059479773 0.88200003
-0.41290542 0.0059479773 0.88200003
-0.41290542 0.0059479773 0.88200003
-0.41976351 0.007586705 0.875
-0.41976351 0.007586705 0.875
-0.41807431 0.007586705 0.875
-0.41807431 0.007586705 0.875
-0.41781276 0.0076127169 0.87800002
-0.41781276 0.0076127169 0.87800002
-0.41611776 0.0076127169 0.87800002
-0.41611776 0.0076127169 0.87800002
-0.41442278 0.0076127169 0.87800002
-0.41442278 0.0076127169 0.87800002
-0.41366795 0.0076300576 0.88
-0.41366795 0.0076300576 0.88
-0.4119691 0.0076300576 0.88
-0.4119691 0.0076300576 0.88
-0.41027027 0.0076300576 0.88
-0.41027027 0.0076300576 0.88
-0.40857142 0.0076300576 0.88
-0.40857142 0.0076300576 0.88
-0.40687257 0.0076300576 0.88
-0.40687257 0.0076300576 0.88
-0.40517375 0.0076300576 0.88
-0.40517375 0.0076300576 0.88
-0.41976351 0.0092726396 0.875
-0.41976351 0.0092726396 0.875
-0.41807431 0.0092726396 0.875
-0.41807431 0.0092726396 0.875
-0.41638514 0.0092726396 0.875
-0.41638514 0.0092726396 0.875
-0.41469595 0.0092726396 0.875
-0.41469595 0.0092726396 0.875
-0.41300675 0.0092726396 0.875
-0.41300675 0.0092726396 0.875
-0.4127278 0.0093044322 0.87800002
-0.4127278 0.0093044322 0.87800002
-0.41103283 0.0093044322 0.87800002
-0.41103283 0.0093044322 0.87800002
-0.40933785 0.0093044322 0.87800002
-0.40933785 0.0093044322 0.87800002
-0.40764287 0.0093044322 0.87800002
-0.40764287 0.0093044322 0.87800002
-0.40687257 0.0093256263 0.88
-0.40687257 0.0093256263 0.88
-0.40517375 0.0093256263 0.88
-0.40517375 0.0093256263 0.88
-0.40255794 0.0093044322 0.87800002
-0.40255794 0.0093044322 0.87800002
-0.4204894 0.010933527 0.87300003
-0.4204894 0.010933527 0.87300003
-0.41880408 0.010933527 0.87300003
-0.41880408 0.010933527 0.87300003
-0.41711873 0.010933527 0.87300003
-0.41711873 0.010933527 0.87300003
-0.41543341 0.010933527 0.87300003
-0.41543341 0.010933527 0.87300003
-0.41469595 0.010958574 0.875
-0.41469595 0.010958574 0.875
-0.41206276 0.010933527 0.87300003
-0.41206276 0.010933527 0.87300003
-0.41037741 0.010933527 0.87300003
-0.41037741 0.010933527 0.87300003
-0.40962839 0.010958574 0.875
-0.40962839 0.010958574 0.875
-0.4079392 0.010958574 0.875
-0.4079392 0.010958574 0.875
-0.40625 0.010958574 0.875
-0.40625 0.010958574 0.875
-0.40594789 0.010996147 0.87800002
-0.40594789 0.010996147 0.87800002
-0.40425292 0.010996147 0.87800002
-0.40425292 0.010996147 0.87800002
-0.40255794 0.010996147 0.87800002
-0.40255794 0.010996147 0.87800002
-0.42024034 0.012557804 0.86900002
-0.42024034 0.012557804 0.86900002
-0.41856274 0.012557804 0.86900002
-0.41856274 0.012557804 0.86900002
-0.41784459 0.012586705 0.87099999
-0.41784459 0.012586705 0.87099999
-0.41616312 0.012586705 0.87099999
-0.41616312 0.012586705 0.87099999
-0.41280019 0.012586705 0.87099999
-0.41280019 0.012586705 0.87099999
-0.41111872 0.012586705 0.87099999
-0.41111872 0.012586705 0.87099999
-0.40943727 0.012586705 0.87099999
-0.40943727 0.012586705 0.87099999
-0.40775579 0.012586705 0.87099999
-0.40775579 0.012586705 0.87099999
-0.40607432 0.012586705 0.87099999
-0.40607432 0.012586705 0.87099999
-0.40532145 0.012615607 0.87300003
-0.40532145 0.012615607 0.87300003
-0.4045608 0.012644509 0.875
-0.4045608 0.012644509 0.875
-0.40287161 0.012644509 0.875
-0.40287161 0.012644509 0.875
-0.40118244 0.012644509 0.875
-0.40118244 0.012644509 0.875
-0.42024034 0.014232177 0.86900002
-0.42024034 0.014232177 0.86900002
-0.41856274 0.014232177 0.86900002
-0.41856274 0.014232177 0.86900002
-0.41592568 0.014199422 0.86699998
-0.41592568 0.014199422 0.86699998
-0.41425192 0.014199422 0.86699998
-0.41425192 0.014199422 0.86699998
-0.41257817 0.014199422 0.86699998
-0.41257817 0.014199422 0.86699998
-0.41090444 0.014199422 0.86699998
-0.41090444 0.014199422 0.86699998
-0.41017473 0.014232177 0.86900002
-0.41017473 0.014232177 0.86900002
-0.40755695 0.014199422 0.86699998
-0.40755695 0.014199422 0.86699998
-0.40588319 0.014199422 0.86699998
-0.40588319 0.014199422 0.86699998
-0.40514189 0.014232177 0.86900002
-0.40514189 0.014232177 0.86900002
-0.40346429 0.014232177 0.86900002
-0.40346429 0.014232177 0.86900002
-0.4036361 0.014297688 0.87300003
-0.4036361 0.014297688 0.87300003
-0.40195078 0.014297688 0.87300003
-0.40195078 0.014297688 0.87300003
-0.40026546 0.014297688 0.87300003
-0.40026546 0.014297688 0.87300003
-0.4209469 0.015869942 0.86699998
-0.4209469 0.015869942 0.86699998
-0.41927317 0.015869942 0.86699998
-0.41927317 0.015869942 0.86699998
-0.41759941 0.015869942 0.86699998
-0.41759941 0.015869942 0.86699998
-0.41592568 0.015869942 0.86699998
-0.41592568 0.015869942 0.86699998
-0.41425192 0.015869942 0.86699998
-0.41425192 0.015869942 0.86699998
-0.41257817 0.015869942 0.86699998
-0.41257817 0.015869942 0.86699998
-0.40948263 0.015815029 0.86400002
-0.40948263 0.015815029 0.86400002
-0.40781468 0.015815029 0.86400002
-0.40781468 0.015815029 0.86400002
-0.40755695 0.015869942 0.86699998
-0.40755695 0.015869942 0.86699998
-0.40588319 0.015869942 0.86699998
-0.40588319 0.015869942 0.86699998
-0.40420946 0.015869942 0.86699998
-0.40420946 0.015869942 0.86699998
-0.40346429 0.015906552 0.86900002
-0.40346429 0.015906552 0.86900002
-0.40271139 0.01594316 0.87099999
-0.40271139 0.01594316 0.87099999
-0.40195078 0.015979769 0.87300003
-0.40195078 0.015979769 0.87300003
-0.40026546 0.015979769 0.87300003
-0.40026546 0.015979769 0.87300003
-0.45661682 -0.014985549 0.91500002
-0.45661682 -0.014985549 0.91500002
-0.45914382 -0.013193642 0.91299999
-0.45914382 -0.013193642 0.91299999
-0.4276419 0.035916183 0.86699998
-0.4276419 0.035916183 0.86699998
-0.42449421 0.035791907 0.86400002
-0.42449421 0.035791907 0.86400002
-0.42184749 0.035709057 0.86199999
-0.42184749 0.035709057 0.86199999
-0.42018339 0.035709057 0.86199999
-0.42018339 0.035709057 0.86199999
-0.41851929 0.035709057 0.86199999
-0.41851929 0.035709057 0.86199999
-0.42862839 0.03767341 0.86900002
-0.42862839 0.03767341 0.86900002
-0.42596814 0.037586704 0.86699998
-0.42596814 0.037586704 0.86699998
-0.42429438 0.037586704 0.86699998
-0.42429438 0.037586704 0.86699998
-0.42262065 0.037586704 0.86699998
-0.42262065 0.037586704 0.86699998
-0.42961487 0.039438341 0.87099999
-0.42961487 0.039438341 0.87099999
-0.428945 0.0025635839 0.88700002
-0.428945 0.0025635839 0.88700002
-0.42626929 0.0025578034 0.88499999
-0.42626929 0.0025578034 0.88499999
-0.42725867 0.0042389208 0.88
-0.42725867 0.0042389208 0.88
-0.41448167 0.012586705 0.87099999
-0.41448167 0.012586705 0.87099999
-0.43236971 0.0025635839 0.88700002
-0.43236971 0.0025635839 0.88700002
-0.43065736 0.0025635839 0.88700002
-0.43065736 0.0025635839 0.88700002
-0.43481177 0.0042630057 0.88499999
-0.43481177 0.0042630057 0.88499999
-0.43310326 0.0042630057 0.88499999
-0.43310326 0.0042630057 0.88499999
-0.43139479 0.0042630057 0.88499999
-0.43139479 0.0042630057 0.88499999
-0.43481177 0.005968208 0.88499999
-0.43481177 0.005968208 0.88499999
-0.43310326 0.005968208 0.88499999
-0.43310326 0.005968208 0.88499999
-0.43333784 0.0076473993 0.88200003
-0.43333784 0.0076473993 0.88200003
-0.42967761 0.0076127169 0.87800002
-0.42967761 0.0076127169 0.87800002
-0.43405405 0.0093256263 0.88
-0.43405405 0.0093256263 0.88
-0.4323552 0.0093256263 0.88
-0.4323552 0.0093256263 0.88
-0.42967761 0.0093044322 0.87800002
-0.42967761 0.0093044322 0.87800002
-0.43405405 0.011021195 0.88
-0.43405405 0.011021195 0.88
-0.42989865 0.010958574 0.875
-0.42989865 0.010958574 0.875
-0.43306759 0.012687862 0.87800002
-0.43306759 0.012687862 0.87800002
-0.43306759 0.014379577 0.87800002
-0.43306759 0.014379577 0.87800002
-0.39649999 0.018922929 0.85399997
-0.39649999 0.018922929 0.85399997
-0.39485133 0.018922929 0.85399997
-0.39485133 0.018922929 0.85399997
-0.39320269 0.018922929 0.85399997
-0.39320269 0.018922929 0.85399997
-0.39017859 0.018856455 0.85100001
-0.39017859 0.018856455 0.85100001
-0.39173165 0.019011561 0.85799998
-0.39173165 0.019011561 0.85799998
-0.39007527 0.019011561 0.85799998
-0.39007527 0.019011561 0.85799998
-0.38841891 0.019011561 0.85799998
-0.38841891 0.019011561 0.85799998
-0.40073359 0.02061657 0.85600001
-0.40073359 0.02061657 0.85600001
-0.39908108 0.02061657 0.85600001
-0.39908108 0.02061657 0.85600001
-0.39510715 0.020496147 0.85100001
-0.39510715 0.020496147 0.85100001
-0.3934643 0.020496147 0.85100001
-0.3934643 0.020496147 0.85100001
-0.39182144 0.020496147 0.85100001
-0.39182144 0.020496147 0.85100001
-0.39017859 0.020496147 0.85100001
-0.39017859 0.020496147 0.85100001
-0.39173165 0.020664738 0.85799998
-0.39173165 0.020664738 0.85799998
-0.39007527 0.020664738 0.85799998
-0.39007527 0.020664738 0.85799998
-0.38841891 0.020664738 0.85799998
-0.38841891 0.020664738 0.85799998
-0.38586101 0.02061657 0.85600001
-0.38586101 0.02061657 0.85600001
-0.40899613 0.022265896 0.85600001
-0.40899613 0.022265896 0.85600001
-0.40734363 0.022265896 0.85600001
-0.40734363 0.022265896 0.85600001
-0.40569112 0.022265896 0.85600001
-0.40569112 0.022265896 0.85600001
-0.40403861 0.022265896 0.85600001
-0.40403861 0.022265896 0.85600001
-0.4023861 0.022265896 0.85600001
-0.4023861 0.022265896 0.85600001
-0.39979729 0.022213873 0.85399997
-0.39979729 0.022213873 0.85399997
-0.39814863 0.022213873 0.85399997
-0.39814863 0.022213873 0.85399997
-0.39510715 0.022135839 0.85100001
-0.39510715 0.022135839 0.85100001
-0.39253956 0.022083815 0.84899998
-0.39253956 0.022083815 0.84899998
-0.39090058 0.022083815 0.84899998
-0.39090058 0.022083815 0.84899998
-0.38926157 0.022083815 0.84899998
-0.38926157 0.022083815 0.84899998
-0.38762257 0.022083815 0.84899998
-0.38762257 0.022083815 0.84899998
-0.38825676 0.022213873 0.85399997
-0.38825676 0.022213873 0.85399997
-0.38660809 0.022213873 0.85399997
-0.38660809 0.022213873 0.85399997
-0.38495946 0.022213873 0.85399997
-0.38495946 0.022213873 0.85399997
-0.41230115 0.023915222 0.85600001
-0.41230115 0.023915222 0.85600001
-0.41064864 0.023915222 0.85600001
-0.41064864 0.023915222 0.85600001
-0.40804052 0.023859344 0.85399997
-0.40804052 0.023859344 0.85399997
-0.40639189 0.023859344 0.85399997
-0.40639189 0.023859344 0.85399997
-0.40474322 0.023859344 0.85399997
-0.40474322 0.023859344 0.85399997
-0.40309459 0.023859344 0.85399997
-0.40309459 0.023859344 0.85399997
-0.40144593 0.023859344 0.85399997
-0.40144593 0.023859344 0.85399997
-0.39979729 0.023859344 0.85399997
-0.39979729 0.023859344 0.85399997
-0.39814863 0.023859344 0.85399997
-0.39814863 0.023859344 0.85399997
-0.39510715 0.023775531 0.85100001
-0.39510715 0.023775531 0.85100001
-0.39253956 0.023719652 0.84899998
-0.39253956 0.023719652 0.84899998
-0.39090058 0.023719652 0.84899998
-0.39090058 0.023719652 0.84899998
-0.38834459 0.023663776 0.847
-0.38834459 0.023663776 0.847
-0.38670945 0.023663776 0.847
-0.38670945 0.023663776 0.847
-0.38598359 0.023719652 0.84899998
-0.38598359 0.023719652 0.84899998
-0.38434458 0.023719652 0.84899998
-0.38434458 0.023719652 0.84899998
-0.38360715 0.023775531 0.85100001
-0.38360715 0.023775531 0.85100001
-0.39510715 0.025415221 0.85100001
-0.39510715 0.025415221 0.85100001
-0.39253956 0.02535549 0.84899998
-0.39253956 0.02535549 0.84899998
-0.38997972 0.02529576 0.847
-0.38997972 0.02529576 0.847
-0.38834459 0.02529576 0.847
-0.38834459 0.02529576 0.847
-0.38670945 0.02529576 0.847
-0.38670945 0.02529576 0.847
-0.38598359 0.02535549 0.84899998
-0.38598359 0.02535549 0.84899998
-0.38905889 0.026864164 0.84500003
-0.38905889 0.026864164 0.84500003
-0.40660715 0.025415221 0.85100001
-0.40660715 0.025415221 0.85100001
-0.4049643 0.025415221 0.85100001
-0.4049643 0.025415221 0.85100001
-0.40332144 0.025415221 0.85100001
-0.40332144 0.025415221 0.85100001
-0.40167856 0.025415221 0.85100001
-0.40167856 0.025415221 0.85100001
-0.40003571 0.025415221 0.85100001
-0.40003571 0.025415221 0.85100001
-0.39979729 0.025504816 0.85399997
-0.39979729 0.025504816 0.85399997
-0.39675 0.025415221 0.85100001
-0.39675 0.025415221 0.85100001
-0.40660715 0.027054913 0.85100001
-0.40660715 0.027054913 0.85100001
-0.4049643 0.027054913 0.85100001
-0.4049643 0.027054913 0.85100001
-0.39161485 0.026927745 0.847
-0.39161485 0.026927745 0.847
-0.43579441 0.0025635839 0.88700002
-0.43579441 0.0025635839 0.88700002
-0.43408206 0.0025635839 0.88700002
-0.43408206 0.0025635839 0.88700002
-0.44713515 -0.0043159924 0.89600003
-0.44713515 -0.0043159924 0.89600003
-0.40968919 0.025504816 0.85399997
-0.40968919 0.025504816 0.85399997
-0.42616218 0.034127168 0.86400002
-0.42616218 0.034127168 0.86400002
-0.4192085 0.019055877 0.86000001
-0.4192085 0.019055877 0.86000001
-0.41492084 0.020664738 0.85799998
-0.41492084 0.020664738 0.85799998
-0.41326448 0.020664738 0.85799998
-0.41326448 0.020664738 0.85799998
-0.4116081 0.022317918 0.85799998
-0.4116081 0.022317918 0.85799998
-0.41298649 0.025504816 0.85399997
-0.41298649 0.025504816 0.85399997
-0.41133782 0.025504816 0.85399997
-0.41133782 0.025504816 0.85399997
-0.40989286 0.033613682 0.85100001
-0.40989286 0.033613682 0.85100001
-0.40825 0.033613682 0.85100001
-0.40825 0.033613682 0.85100001
-0.42086872 0.019055877 0.86000001
-0.42086872 0.019055877 0.86000001
-0.42596814 0.017540462 0.86699998
-0.42596814 0.017540462 0.86699998
-0.41298649 0.035377648 0.85399997
-0.41298649 0.035377648 0.85399997
-0.40989286 0.031973988 0.85100001
-0.40989286 0.031973988 0.85100001
-0.40332144 0.028694605 0.85100001
-0.40332144 0.028694605 0.85100001
-0.40167856 0.028694605 0.85100001
-0.40167856 0.028694605 0.85100001
-0.40003571 0.028694605 0.85100001
-0.40003571 0.028694605 0.85100001
-0.39839286 0.028694605 0.85100001
-0.39839286 0.028694605 0.85100001
-0.40825 0.030334298 0.85100001
-0.40825 0.030334298 0.85100001
-0.40660715 0.030334298 0.85100001
-0.40660715 0.030334298 0.85100001
-0.4049643 0.030334298 0.85100001
-0.4049643 0.030334298 0.85100001
-0.40332144 0.030334298 0.85100001
-0.40332144 0.030334298 0.85100001
-0.40167856 0.030334298 0.85100001
-0.40167856 0.030334298 0.85100001
-0.41133782 0.02879576 0.85399997
-0.41133782 0.02879576 0.85399997
-0.42351156 0.03404817 0.86199999
-0.42351156 0.03404817 0.86199999
-0.42616218 0.032462429 0.86400002
-0.42616218 0.032462429 0.86400002
-0.43652028 0.0076734102 0.88499999
-0.43652028 0.0076734102 0.88499999
-0.41463512 0.027150288 0.85399997
-0.41463512 0.027150288 0.85399997
-0.41298649 0.027150288 0.85399997
-0.41298649 0.027150288 0.85399997
-0.41133782 0.027150288 0.85399997
-0.41133782 0.027150288 0.85399997
-0.40825 0.031973988 0.85100001
-0.40825 0.031973988 0.85100001
-0.40968919 0.027150288 0.85399997
-0.40968919 0.027150288 0.85399997
-0.41298649 0.02879576 0.85399997
-0.41298649 0.02879576 0.85399997
-0.44786292 -0.00086127169 0.89399999
-0.44786292 -0.00086127169 0.89399999
-0.44786292 0.00086127169 0.89399999
-0.44786292 0.00086127169 0.89399999
-0.44613707 0.00086127169 0.89399999
-0.44613707 0.00086127169 0.89399999
-0.44441119 0.00086127169 0.89399999
-0.44441119 0.00086127169 0.89399999
-0.44613707 0.002583815 0.89399999
-0.44613707 0.002583815 0.89399999
-0.44441119 0.002583815 0.89399999
-0.44441119 0.002583815 0.89399999
-0.44119978 0.0025751444 0.89099997
-0.44119978 0.0025751444 0.89099997
-0.44441119 0.0043063583 0.89399999
-0.44441119 0.0043063583 0.89399999
-0.44020945 0.0042822738 0.889
-0.44020945 0.0042822738 0.889
-0.43849325 0.0042822738 0.889
-0.43849325 0.0042822738 0.889
-0.4436419 0.0059951833 0.889
-0.4436419 0.0059951833 0.889
-0.44093147 0.0059816958 0.88700002
-0.44093147 0.0059816958 0.88700002
-0.43921912 0.0059816958 0.88700002
-0.43921912 0.0059816958 0.88700002
-0.43750677 0.0059816958 0.88700002
-0.43750677 0.0059816958 0.88700002
-0.44786292 0.0077514448 0.89399999
-0.44786292 0.0077514448 0.89399999
-0.4436419 0.0077080927 0.889
-0.4436419 0.0077080927 0.889
-0.44093147 0.0076907515 0.88700002
-0.44093147 0.0076907515 0.88700002
-0.43921912 0.0076907515 0.88700002
-0.43921912 0.0076907515 0.88700002
-0.44786292 0.0094739888 0.89399999
-0.44786292 0.0094739888 0.89399999
-0.44613707 0.0094739888 0.89399999
-0.44613707 0.0094739888 0.89399999
-0.44093147 0.009399808 0.88700002
-0.44093147 0.009399808 0.88700002
-0.43822876 0.009378613 0.88499999
-0.43822876 0.009378613 0.88499999
-0.44786292 0.011196531 0.89399999
-0.44786292 0.011196531 0.89399999
-0.44613707 0.011196531 0.89399999
-0.44613707 0.011196531 0.89399999
-0.44093147 0.011108863 0.88700002
-0.44093147 0.011108863 0.88700002
-0.43822876 0.011083815 0.88499999
-0.43822876 0.011083815 0.88499999
-0.44713515 0.012947978 0.89600003
-0.44713515 0.012947978 0.89600003
-0.44291988 0.012875722 0.89099997
-0.44291988 0.012875722 0.89099997
-0.43921912 0.012817919 0.88700002
-0.43921912 0.012817919 0.88700002
-0.44713515 0.014674374 0.89600003
-0.44713515 0.014674374 0.89600003
-0.44540542 0.014674374 0.89600003
-0.44540542 0.014674374 0.89600003
-0.41628376 0.025504816 0.85399997
-0.41628376 0.025504816 0.85399997
-0.41463512 0.025504816 0.85399997
-0.41463512 0.025504816 0.85399997
-0.42086872 0.033969171 0.86000001
-0.42086872 0.033969171 0.86000001
-0.41823357 0.033890173 0.85799998
-0.41823357 0.033890173 0.85799998
-0.41657722 0.033890173 0.85799998
-0.41657722 0.033890173 0.85799998
-0.41823357 0.020664738 0.85799998
-0.41823357 0.020664738 0.85799998
-0.41657722 0.020664738 0.85799998
-0.41657722 0.020664738 0.85799998
-0.41657722 0.022317918 0.85799998
-0.41657722 0.022317918 0.85799998
-0.41492084 0.022317918 0.85799998
-0.41492084 0.022317918 0.85799998
-0.40825 0.028694605 0.85100001
-0.40825 0.028694605 0.85100001
-0.40660715 0.028694605 0.85100001
-0.40660715 0.028694605 0.85100001
-0.41628376 0.023859344 0.85399997
-0.41628376 0.023859344 0.85399997
-0.41560617 0.023915222 0.85600001
-0.41560617 0.023915222 0.85600001
-0.41395366 0.023915222 0.85600001
-0.41395366 0.023915222 0.85600001
-0.41298649 0.033732176 0.85399997
-0.41298649 0.033732176 0.85399997
-0.41298649 0.030441232 0.85399997
-0.41298649 0.030441232 0.85399997
-0.41326448 0.022317918 0.85799998
-0.41326448 0.022317918 0.85799998
-0.42086872 0.02071291 0.86000001
-0.42086872 0.02071291 0.86000001
-0.40332144 0.027054913 0.85100001
-0.40332144 0.027054913 0.85100001
-0.40660715 0.031973988 0.85100001
-0.40660715 0.031973988 0.85100001
-0.41133782 0.030441232 0.85399997
-0.41133782 0.030441232 0.85399997
-0.40660715 0.033613682 0.85100001
-0.40660715 0.033613682 0.85100001
-0.41298649 0.032086704 0.85399997
-0.41298649 0.032086704 0.85399997
-0.41823357 0.022317918 0.85799998
-0.41823357 0.022317918 0.85799998
-0.39839286 0.031973988 0.85100001
-0.39839286 0.031973988 0.85100001
-0.40167856 0.027054913 0.85100001
-0.40167856 0.027054913 0.85100001
-0.40003571 0.027054913 0.85100001
-0.40003571 0.027054913 0.85100001
-0.39839286 0.027054913 0.85100001
-0.39839286 0.027054913 0.85100001
-0.4049643 0.028694605 0.85100001
-0.4049643 0.028694605 0.85100001
-0.41628376 0.02879576 0.85399997
-0.41628376 0.02879576 0.85399997
-0.42154631 0.032236993 0.85799998
-0.42154631 0.032236993 0.85799998
-0.4049643 0.031973988 0.85100001
-0.4049643 0.031973988 0.85100001
-0.40332144 0.031973988 0.85100001
-0.40332144 0.031973988 0.85100001
-0.41793242 0.027150288 0.85399997
-0.41793242 0.027150288 0.85399997
-0.41628376 0.027150288 0.85399997
-0.41628376 0.027150288 0.85399997
-0.41793242 0.023859344 0.85399997
-0.41793242 0.023859344 0.85399997
-0.41793242 0.025504816 0.85399997
-0.41793242 0.025504816 0.85399997
-0.41891119 0.03216185 0.85600001
-0.41891119 0.03216185 0.85600001
-0.41725868 0.03216185 0.85600001
-0.41725868 0.03216185 0.85600001
-0.41657722 0.032236993 0.85799998
-0.41657722 0.032236993 0.85799998
-0.4049643 0.033613682 0.85100001
-0.4049643 0.033613682 0.85100001
-0.41958106 0.02879576 0.85399997
-0.41958106 0.02879576 0.85399997
-0.41793242 0.02879576 0.85399997
-0.41793242 0.02879576 0.85399997
-0.41958106 0.030441232 0.85399997
-0.41958106 0.030441232 0.85399997
-0.41793242 0.030441232 0.85399997
-0.41793242 0.030441232 0.85399997
-0.41725868 0.030512525 0.85600001
-0.41725868 0.030512525 0.85600001
-0.41560617 0.030512525 0.85600001
-0.41560617 0.030512525 0.85600001
-0.41958106 0.027150288 0.85399997
-0.41958106 0.027150288 0.85399997
-0.41560617 0.028863199 0.85600001
-0.41560617 0.028863199 0.85600001
-0.39839286 0.030334298 0.85100001
-0.39839286 0.030334298 0.85100001
-0.40167856 0.031973988 0.85100001
-0.40167856 0.031973988 0.85100001
-0.39675 0.027054913 0.85100001
-0.39675 0.027054913 0.85100001
-0.40003571 0.031973988 0.85100001
-0.40003571 0.031973988 0.85100001
-0.39510715 0.027054913 0.85100001
-0.39510715 0.027054913 0.85100001
-0.40003571 0.030334298 0.85100001
-0.40003571 0.030334298 0.85100001
-0.39675 0.028694605 0.85100001
-0.39675 0.028694605 0.85100001
-0.39510715 0.031973988 0.85100001
-0.39510715 0.031973988 0.85100001
-0.39675 0.031973988 0.85100001
-0.39675 0.031973988 0.85100001
-0.39510715 0.028694605 0.85100001
-0.39510715 0.028694605 0.85100001
-0.39510715 0.030334298 0.85100001
-0.39510715 0.030334298 0.85100001
-0.39253956 0.030263005 0.84899998
-0.39253956 0.030263005 0.84899998
-0.39161485 0.028559729 0.847
-0.39161485 0.028559729 0.847
-0.39675 0.030334298 0.85100001
-0.39675 0.030334298 0.85100001
-0.38997972 0.030191716 0.847
-0.38997972 0.030191716 0.847
-0.38905889 0.028492294 0.84500003
-0.38905889 0.028492294 0.84500003
-0.38742763 0.026864164 0.84500003
-0.38742763 0.026864164 0.84500003
-0.38670945 0.026927745 0.847
-0.38670945 0.026927745 0.847
-0.38742763 0.028492294 0.84500003
-0.38742763 0.028492294 0.84500003
-0.38834459 0.030191716 0.847
-0.38834459 0.030191716 0.847
-0.38360715 0.025415221 0.85100001
-0.38360715 0.025415221 0.85100001
-0.38434458 0.02535549 0.84899998
-0.38434458 0.02535549 0.84899998
-0.38598359 0.026991328 0.84899998
-0.38598359 0.026991328 0.84899998
-0.3827056 0.026991328 0.84899998
-0.3827056 0.026991328 0.84899998
-0.38253379 0.028492294 0.84500003
-0.38253379 0.028492294 0.84500003
-0.48564285 -0.047265895 0.96200001
-0.48378572 -0.047265895 0.96200001
-0.48042569 -0.047118496 0.95899999
-0.47857431 -0.047118496 0.95899999
-0.47423744 -0.046872832 0.954
-0.47239575 -0.046872832 0.954
-0.47055405 -0.046872832 0.954
-0.46871236 -0.046872832 0.954
-0.46687067 -0.046872832 0.954
-0.46600384 -0.046971098 0.95599997
-0.48815057 -0.045129094 0.95599997
-0.486305 -0.045129094 0.95599997
-0.48344594 -0.045034681 0.954
-0.48160425 -0.045034681 0.954
-0.48076832 -0.045129094 0.95599997
-0.47792086 -0.045034681 0.954
-0.47607914 -0.045034681 0.954
-0.47274613 -0.044893064 0.95099998
-0.47091022 -0.044893064 0.95099998
-0.46907431 -0.044893064 0.95099998
-0.4672384 -0.044893064 0.95099998
-0.46540248 -0.044893064 0.95099998
-0.4635666 -0.044893064 0.95099998
-0.46318725 -0.045034681 0.954
-0.48999614 -0.043287091 0.95599997
-0.48815057 -0.043287091 0.95599997
-0.48528764 -0.043196533 0.954
-0.48344594 -0.043196533 0.954
-0.48160425 -0.043196533 0.954
-0.47976255 -0.043196533 0.954
-0.47792086 -0.043196533 0.954
-0.47607914 -0.043196533 0.954
-0.47125483 -0.042924855 0.94800001
-0.46942472 -0.042924855 0.94800001
-0.46907431 -0.043060694 0.95099998
-0.4672384 -0.043060694 0.95099998
-0.46540248 -0.043060694 0.95099998
-0.4635666 -0.043060694 0.95099998
-0.46318725 -0.043196533 0.954
-0.49265444 -0.041358382 0.954
-0.49081275 -0.041358382 0.954
-0.48897105 -0.041358382 0.954
-0.48712933 -0.041358382 0.954
-0.48528764 -0.041358382 0.954
-0.48344594 -0.041358382 0.954
-0.48160425 -0.041358382 0.954
-0.47976255 -0.041358382 0.954
-0.47792086 -0.041358382 0.954
-0.47607914 -0.041358382 0.954
-0.47125483 -0.041098267 0.94800001
-0.46942472 -0.041098267 0.94800001
-0.46907431 -0.041228324 0.95099998
-0.4672384 -0.041228324 0.95099998
-0.46540248 -0.041228324 0.95099998
-0.4635666 -0.041228324 0.95099998
-0.46318725 -0.041358382 0.954
-0.49633783 -0.03952023 0.954
-0.49449614 -0.03952023 0.954
-0.49265444 -0.03952023 0.954
-0.49081275 -0.03952023 0.954
-0.48897105 -0.03952023 0.954
-0.48712933 -0.03952023 0.954
-0.48528764 -0.03952023 0.954
-0.48344594 -0.03952023 0.954
-0.48160425 -0.03952023 0.954
-0.47976255 -0.03952023 0.954
-0.47641793 -0.039395954 0.95099998
-0.47458205 -0.039395954 0.95099998
-0.47125483 -0.039271675 0.94800001
-0.46942472 -0.039271675 0.94800001
-0.46759459 -0.039271675 0.94800001
-0.46576449 -0.039271675 0.94800001
-0.46393436 -0.039271675 0.94800001
-0.46210426 -0.039271675 0.94800001
-0.46027413 -0.039271675 0.94800001
-0.45844403 -0.039271675 0.94800001
-0.49844882 -0.037563581 0.95099998
-0.49661294 -0.037563581 0.95099998
-0.49633783 -0.037682083 0.954
-0.49449614 -0.037682083 0.954
-0.49265444 -0.037682083 0.954
-0.49081275 -0.037682083 0.954
-0.48897105 -0.037682083 0.954
-0.48712933 -0.037682083 0.954
-0.48528764 -0.037682083 0.954
-0.48192567 -0.037563581 0.95099998
-0.48008975 -0.037563581 0.95099998
-0.47825384 -0.037563581 0.95099998
-0.47491506 -0.037445087 0.94800001
-0.47208688 -0.037366088 0.94599998
-0.47026062 -0.037366088 0.94599998
-0.46843436 -0.037366088 0.94599998
-0.46660811 -0.037366088 0.94599998
-0.46576449 -0.037445087 0.94800001
-0.46393436 -0.037445087 0.94800001
-0.46210426 -0.037445087 0.94800001
-0.46027413 -0.037445087 0.94800001
-0.45844403 -0.037445087 0.94800001
-0.4566139 -0.037445087 0.94800001
-0.4547838 -0.037445087 0.94800001
-0.49661294 -0.035731211 0.95099998
-0.49477702 -0.035731211 0.95099998
-0.49294111 -0.035731211 0.95099998
-0.4911052 -0.035731211 0.95099998
-0.48926929 -0.035731211 0.95099998
-0.48743337 -0.035731211 0.95099998
-0.48559749 -0.035731211 0.95099998
-0.48376158 -0.035731211 0.95099998
-0.48192567 -0.035731211 0.95099998
-0.48008975 -0.035731211 0.95099998
-0.47573936 -0.035543352 0.94599998
-0.4739131 -0.035543352 0.94599998
-0.47058979 -0.035430636 0.94300002
-0.46694884 -0.035430636 0.94300002
-0.46512839 -0.035430636 0.94300002
-0.46478185 -0.035543352 0.94599998
-0.46295559 -0.035543352 0.94599998
-0.46112934 -0.035543352 0.94599998
-0.45930308 -0.035543352 0.94599998
-0.45747682 -0.035543352 0.94599998
-0.45565057 -0.035543352 0.94599998
-0.4547838 -0.035618499 0.94800001
-0.49504635 -0.033791907 0.94800001
-0.49321622 -0.033791907 0.94800001
-0.49138612 -0.033791907 0.94800001
-0.48955598 -0.033791907 0.94800001
-0.48772588 -0.033791907 0.94800001
-0.48589575 -0.033791907 0.94800001
-0.48406565 -0.033791907 0.94800001
-0.48223552 -0.033791907 0.94800001
-0.47939187 -0.033720616 0.94599998
-0.47756562 -0.033720616 0.94599998
-0.47423071 -0.033613682 0.94300002
-0.47241023 -0.033613682 0.94300002
-0.46909267 -0.033506744 0.94
-0.467278 -0.033506744 0.94
-0.46546331 -0.033506744 0.94
-0.46364865 -0.033506744 0.94
-0.46330792 -0.033613682 0.94300002
-0.46148747 -0.033613682 0.94300002
-0.459667 -0.033613682 0.94300002
-0.45784652 -0.033613682 0.94300002
-0.45602608 -0.033613682 0.94300002
-0.45565057 -0.033720616 0.94599998
-0.4547838 -0.033791907 0.94800001
-0.45295367 -0.033791907 0.94800001
-0.49400192 -0.03189788 0.94599998
-0.49217567 -0.03189788 0.94599998
-0.49034941 -0.03189788 0.94599998
-0.48852316 -0.03189788 0.94599998
-0.4866969 -0.03189788 0.94599998
-0.48487064 -0.03189788 0.94599998
-0.48304439 -0.03189788 0.94599998
-0.48121813 -0.03189788 0.94599998
-0.47787163 -0.031796724 0.94300002
-0.47605118 -0.031796724 0.94300002
-0.47171623 -0.031628132 0.93800002
-0.46990541 -0.031628132 0.93800002
-0.46809462 -0.031628132 0.93800002
-0.4662838 -0.031628132 0.93800002
-0.46447298 -0.031628132 0.93800002
-0.46266216 -0.031628132 0.93800002
-0.46085137 -0.031628132 0.93800002
-0.45904055 -0.031628132 0.93800002
-0.45722973 -0.031628132 0.93800002
-0.45541894 -0.031628132 0.93800002
-0.45360813 -0.031628132 0.93800002
-0.4542056 -0.031796724 0.94300002
-0.45238516 -0.031796724 0.94300002
-0.45056468 -0.031796724 0.94300002
-0.49400192 -0.030075144 0.94599998
-0.49217567 -0.030075144 0.94599998
-0.49034941 -0.030075144 0.94599998
-0.48697394 -0.029979769 0.94300002
-0.4851535 -0.029979769 0.94300002
-0.48333302 -0.029979769 0.94300002
-0.48151255 -0.029979769 0.94300002
-0.4796921 -0.029979769 0.94300002
-0.47533786 -0.029820809 0.93800002
-0.47352704 -0.029820809 0.93800002
-0.47020754 -0.029725434 0.935
-0.4684025 -0.029725434 0.935
-0.4665975 -0.029725434 0.935
-0.46479246 -0.029725434 0.935
-0.46298745 -0.029725434 0.935
-0.46118245 -0.029725434 0.935
-0.45937741 -0.029725434 0.935
-0.4575724 -0.029725434 0.935
-0.45576736 -0.029725434 0.935
-0.45396236 -0.029725434 0.935
-0.4497394 -0.029566474 0.93000001
-0.44794402 -0.029566474 0.93000001
-0.44614866 -0.029566474 0.93000001
-0.4419643 -0.029407514 0.92500001
-0.44017857 -0.029407514 0.92500001
-0.48361003 -0.028073218 0.94
-0.48179537 -0.028073218 0.94
-0.47998071 -0.028073218 0.94
-0.47816601 -0.028073218 0.94
-0.47381756 -0.027923891 0.935
-0.47100291 -0.027864162 0.93300003
-0.46920174 -0.027864162 0.93300003
-0.46740058 -0.027864162 0.93300003
-0.46559945 -0.027864162 0.93300003
-0.46379828 -0.027864162 0.93300003
-0.46199712 -0.027864162 0.93300003
-0.46118245 -0.027923891 0.935
-0.4583948 -0.027864162 0.93300003
-0.45659363 -0.027864162 0.93300003
-0.4547925 -0.027864162 0.93300003
-0.45153475 -0.027774567 0.93000001
-0.44877219 -0.027714835 0.92799997
-0.44698068 -0.027714835 0.92799997
-0.44518918 -0.027714835 0.92799997
-0.4419643 -0.02762524 0.92500001
-0.44017857 -0.02762524 0.92500001
-0.43839288 -0.02762524 0.92500001
-0.47895947 -0.026206166 0.93800002
-0.47562259 -0.02612235 0.935
-0.47280407 -0.026066475 0.93300003
-0.46948841 -0.025982659 0.93000001
-0.46769306 -0.025982659 0.93000001
-0.46589768 -0.025982659 0.93000001
-0.46559945 -0.026066475 0.93300003
-0.46379828 -0.026066475 0.93300003
-0.46199712 -0.026066475 0.93300003
-0.46019596 -0.026066475 0.93300003
-0.4583948 -0.026066475 0.93300003
-0.45512548 -0.025982659 0.93000001
-0.45333013 -0.025982659 0.93000001
-0.4505637 -0.025926782 0.92799997
-0.44732144 -0.025842968 0.92500001
-0.44553572 -0.025842968 0.92500001
-0.44374999 -0.025842968 0.92500001
-0.4419643 -0.025842968 0.92500001
-0.44017857 -0.025842968 0.92500001
-0.43839288 -0.025842968 0.92500001
-0.4774276 -0.024320809 0.935
-0.47460523 -0.024268787 0.93300003
-0.47128379 -0.024190752 0.93000001
-0.46847874 -0.024138728 0.92799997
-0.46668723 -0.024138728 0.92799997
-0.46489573 -0.024138728 0.92799997
-0.46310425 -0.024138728 0.92799997
-0.46131274 -0.024138728 0.92799997
-0.45952123 -0.024138728 0.92799997
-0.45772973 -0.024138728 0.92799997
-0.45593822 -0.024138728 0.92799997
-0.45414671 -0.024138728 0.92799997
-0.45235521 -0.024138728 0.92799997
-0.44910714 -0.024060695 0.92500001
-0.44732144 -0.024060695 0.92500001
-0.44553572 -0.024060695 0.92500001
-0.44374999 -0.024060695 0.92500001
-0.4419643 -0.024060695 0.92500001
-0.44017857 -0.024060695 0.92500001
-0.43839288 -0.024060695 0.92500001
-0.47460523 -0.022471098 0.93300003
-0.47128379 -0.022398844 0.93000001
-0.46847874 -0.022350674 0.92799997
-0.46668723 -0.022350674 0.92799997
-0.46339285 -0.022278421 0.92500001
-0.46160716 -0.022278421 0.92500001
-0.45982143 -0.022278421 0.92500001
-0.45803571 -0.022278421 0.92500001
-0.45625001 -0.022278421 0.92500001
-0.45446429 -0.022278421 0.92500001
-0.45267859 -0.022278421 0.92500001
-0.45089287 -0.022278421 0.92500001
-0.44910714 -0.022278421 0.92500001
-0.44732144 -0.022278421 0.92500001
-0.44553572 -0.022278421 0.92500001
-0.44374999 -0.022278421 0.92500001
-0.4419643 -0.022278421 0.92500001
-0.44017857 -0.022278421 0.92500001
-0.43839288 -0.022278421 0.92500001
-0.47460523 -0.020673411 0.93300003
-0.47027025 -0.020562619 0.92799997
-0.4669643 -0.020496147 0.92500001
-0.46517858 -0.020496147 0.92500001
-0.46339285 -0.020496147 0.92500001
-0.46160716 -0.020496147 0.92500001
-0.45982143 -0.020496147 0.92500001
-0.45803571 -0.020496147 0.92500001
-0.45625001 -0.020496147 0.92500001
-0.45446429 -0.020496147 0.92500001
-0.45267859 -0.020496147 0.92500001
-0.45089287 -0.020496147 0.92500001
-0.44813609 -0.020451831 0.92299998
-0.44635424 -0.020451831 0.92299998
-0.44457239 -0.020451831 0.92299998
-0.44374999 -0.020496147 0.92500001
-0.4419643 -0.020496147 0.92500001
-0.44017857 -0.020496147 0.92500001
-0.43839288 -0.020496147 0.92500001
-0.47307914 -0.018815029 0.93000001
-0.46875 -0.018713873 0.92500001
-0.4669643 -0.018713873 0.92500001
-0.46417278 -0.018673411 0.92299998
-0.46239093 -0.018673411 0.92299998
-0.46060905 -0.018673411 0.92299998
-0.4588272 -0.018673411 0.92299998
-0.45704535 -0.018673411 0.92299998
-0.4552635 -0.018673411 0.92299998
-0.45348164 -0.018673411 0.92299998
-0.45169979 -0.018673411 0.92299998
-0.44991794 -0.018673411 0.92299998
-0.44667953 -0.018612716 0.92000002
-0.44490349 -0.018612716 0.92000002
-0.44312742 -0.018612716 0.92000002
-0.44135135 -0.018612716 0.92000002
-0.44100869 -0.018673411 0.92299998
-0.44017857 -0.018713873 0.92500001
-0.47307914 -0.017023122 0.93000001
-0.46875 -0.016931599 0.92500001
-0.46417278 -0.016894991 0.92299998
-0.4403919 -0.016803468 0.91799998
-0.44100869 -0.016894991 0.92299998
-0.44017857 -0.016931599 0.92500001
-0.46875 -0.015149326 0.92500001
-0.46875 -0.013367052 0.92500001
-0.46875 -0.011584778 0.92500001
-0.45811388 -0.016803468 0.91799998
-0.45811388 -0.016803468 0.91799998
-0.45634168 -0.016803468 0.91799998
-0.45634168 -0.016803468 0.91799998
-0.4583832 -0.014985549 0.91500002
-0.4583832 -0.014985549 0.91500002
-0.46191603 -0.013222544 0.91500002
-0.46191603 -0.013222544 0.91500002
-0.46088803 -0.016840078 0.92000002
-0.46088803 -0.016840078 0.92000002
-0.4626641 -0.015067438 0.92000002
-0.4626641 -0.015067438 0.92000002
-0.46876931 -0.035430636 0.94300002
-0.46876931 -0.035430636 0.94300002
-0.46595463 -0.016894991 0.92299998
-0.46595463 -0.016894991 0.92299998
-0.46595463 -0.01511657 0.92299998
-0.46595463 -0.01511657 0.92299998
-0.48697394 -0.028162813 0.94300002
-0.48697394 -0.028162813 0.94300002
-0.48077029 -0.024398845 0.93800002
-0.48077029 -0.024398845 0.93800002
-0.47923264 -0.022519268 0.935
-0.47923264 -0.022519268 0.935
-0.47307914 -0.015231214 0.93000001
-0.47307914 -0.015231214 0.93000001
-0.49034941 -0.028252408 0.94599998
-0.49034941 -0.028252408 0.94599998
-0.48620272 -0.024398845 0.93800002
-0.48620272 -0.024398845 0.93800002
-0.48620272 -0.022591522 0.93800002
-0.48620272 -0.022591522 0.93800002
-0.4843919 -0.022591522 0.93800002
-0.4843919 -0.022591522 0.93800002
-0.4843919 -0.020784201 0.93800002
-0.4843919 -0.020784201 0.93800002
-0.48103765 -0.020717727 0.935
-0.48103765 -0.020717727 0.935
-0.47923264 -0.020717727 0.935
-0.47923264 -0.020717727 0.935
-0.4843919 -0.018976878 0.93800002
-0.4843919 -0.018976878 0.93800002
-0.48258108 -0.018976878 0.93800002
-0.48258108 -0.018976878 0.93800002
-0.47923264 -0.018916186 0.935
-0.47923264 -0.018916186 0.935
-0.48258108 -0.017169558 0.93800002
-0.48258108 -0.017169558 0.93800002
-0.47923264 -0.017114643 0.935
-0.47923264 -0.017114643 0.935
-0.4764064 -0.017078035 0.93300003
-0.4764064 -0.017078035 0.93300003
-0.4851535 -0.015444123 0.94300002
-0.4851535 -0.015444123 0.94300002
-0.48077029 -0.015362236 0.93800002
-0.48077029 -0.015362236 0.93800002
-0.4764064 -0.015280347 0.93300003
-0.4764064 -0.015280347 0.93300003
-0.4851535 -0.013627168 0.94300002
-0.4851535 -0.013627168 0.94300002
-0.48179537 -0.013583815 0.94
-0.48179537 -0.013583815 0.94
-0.47998071 -0.013583815 0.94
-0.47998071 -0.013583815 0.94
-0.4866969 -0.011847784 0.94599998
-0.4866969 -0.011847784 0.94599998
-0.48333302 -0.011810212 0.94300002
-0.48333302 -0.011810212 0.94300002
-0.48151255 -0.011810212 0.94300002
-0.48151255 -0.011810212 0.94300002
-0.47562259 -0.011710019 0.935
-0.47562259 -0.011710019 0.935
-0.48955598 -0.010046243 0.94800001
-0.48955598 -0.010046243 0.94800001
-0.48772588 -0.010046243 0.94800001
-0.48772588 -0.010046243 0.94800001
-0.48487064 -0.010025048 0.94599998
-0.48487064 -0.010025048 0.94599998
-0.48304439 -0.010025048 0.94599998
-0.48304439 -0.010025048 0.94599998
-0.48121813 -0.010025048 0.94599998
-0.48121813 -0.010025048 0.94599998
-0.47939187 -0.010025048 0.94599998
-0.47939187 -0.010025048 0.94599998
-0.4774276 -0.022519268 0.935
-0.4774276 -0.022519268 0.935
-0.49217567 -0.026429672 0.94599998
-0.49217567 -0.026429672 0.94599998
-0.49034941 -0.026429672 0.94599998
-0.49034941 -0.026429672 0.94599998
-0.4854247 -0.026262043 0.94
-0.4854247 -0.026262043 0.94
-0.48258108 -0.026206166 0.93800002
-0.48258108 -0.026206166 0.93800002
-0.48077029 -0.026206166 0.93800002
-0.48077029 -0.026206166 0.93800002
-0.4774276 -0.020717727 0.935
-0.4774276 -0.020717727 0.935
-0.4764064 -0.018875724 0.93300003
-0.4764064 -0.018875724 0.93300003
