# .PCD v0.7 - Point Cloud Data file format
VERSION 0.7
FIELDS x y z
SIZE 4 4 4
TYPE F F F
COUNT 1 1 1
WIDTH 1463
HEIGHT 1
VIEWPOINT 0 0 0 1 0 0 0
POINTS 1463
DATA ascii
-0.24726449 0.17281888 0.69800001
-0.24591699 0.17281888 0.69800001
-0.24456951 0.17281888 0.69800001
-0.24391891 0.17331406 0.69999999
-0.24256757 0.17331406 0.69999999
-0.24225001 0.17405684 0.70300001
-0.24089286 0.17405684 0.70300001
-0.23953572 0.17405684 0.70300001
-0.23817858 0.17405684 0.70300001
-0.23682143 0.17405684 0.70300001
-0.23546429 0.17405684 0.70300001
-0.23410715 0.17405684 0.70300001
-0.23275 0.17405684 0.70300001
-0.23139286 0.17405684 0.70300001
-0.23003572 0.17405684 0.70300001
-0.22867857 0.17405684 0.70300001
-0.22764479 0.17430443 0.704
-0.22628571 0.17430443 0.704
-0.22492664 0.17430443 0.704
-0.22356756 0.17430443 0.704
-0.22283976 0.17479961 0.70599997
-0.22179055 0.1750472 0.70700002
-0.22042568 0.1750472 0.70700002
-0.21937066 0.1752948 0.708
-0.21800387 0.1752948 0.708
-0.21663706 0.1752948 0.708
-0.21587837 0.17578998 0.70999998
-0.21450771 0.17578998 0.70999998
-0.21313706 0.17578998 0.70999998
-0.21176641 0.17578998 0.70999998
-0.21039575 0.17578998 0.70999998
-0.20902508 0.17578998 0.70999998
-0.20765443 0.17578998 0.70999998
-0.20628378 0.17578998 0.70999998
-0.20491312 0.17578998 0.70999998
-0.20440251 0.17653276 0.713
-0.20302606 0.17653276 0.713
-0.20164962 0.17653276 0.713
-0.20055404 0.17678034 0.71399999
-0.19917567 0.17678034 0.71399999
-0.1977973 0.17678034 0.71399999
-0.19641891 0.17678034 0.71399999
-0.19558688 0.17727554 0.71600002
-0.19420464 0.17727554 0.71600002
-0.19309171 0.17752312 0.71700001
-0.19170754 0.17752312 0.71700001
-0.19032337 0.17752312 0.71700001
-0.18946621 0.1780183 0.71899998
-0.18807818 0.1780183 0.71899998
-0.18669015 0.1780183 0.71899998
-0.18530212 0.1780183 0.71899998
-0.1839141 0.1780183 0.71899998
-0.18277992 0.1782659 0.72000003
-0.18138997 0.1782659 0.72000003
-0.18000001 0.1782659 0.72000003
-0.17910618 0.17876108 0.722
-0.17795849 0.17900866 0.72299999
-0.17656274 0.17900866 0.72299999
-0.17516698 0.17900866 0.72299999
-0.17425193 0.17950386 0.72500002
-0.17285232 0.17950386 0.72500002
-0.1714527 0.17950386 0.72500002
-0.17005309 0.17950386 0.72500002
-0.16865347 0.17950386 0.72500002
-0.16771525 0.17999904 0.727
-0.16654053 0.18024662 0.72799999
-0.16513513 0.18024662 0.72799999
-0.16372973 0.18024662 0.72799999
-0.16232432 0.18024662 0.72799999
-0.16091892 0.18024662 0.72799999
-0.15995175 0.18074182 0.73000002
-0.15854247 0.18074182 0.73000002
-0.15734845 0.1809894 0.73100001
-0.15593725 0.1809894 0.73100001
-0.15494883 0.18148458 0.73299998
-0.15353379 0.18148458 0.73299998
-0.15232626 0.18173218 0.73400003
-0.15090927 0.18173218 0.73400003
-0.14949228 0.18173218 0.73400003
-0.1480753 0.18173218 0.73400003
-0.1466583 0.18173218 0.73400003
-0.14563707 0.18222736 0.736
-0.14421621 0.18222736 0.736
-0.14279537 0.18222736 0.736
-0.14137451 0.18222736 0.736
-0.13995367 0.18222736 0.736
-0.13890927 0.18272254 0.73799998
-0.13767086 0.18297014 0.73900002
-0.13605984 0.18272254 0.73799998
-0.13463514 0.18272254 0.73799998
-0.13375193 0.18346532 0.741
-0.13232143 0.18346532 0.741
-0.13089092 0.18346532 0.741
-0.12963513 0.1837129 0.74199998
-0.12820271 0.1837129 0.74199998
-0.12677027 0.1837129 0.74199998
-0.12567568 0.1842081 0.74400002
-0.12423939 0.1842081 0.74400002
-0.12280309 0.1842081 0.74400002
-0.12169305 0.18470328 0.74599999
-0.12025289 0.18470328 0.74599999
-0.11881274 0.18470328 0.74599999
-0.11737259 0.18470328 0.74599999
-0.11608783 0.18495086 0.74699998
-0.11464575 0.18495086 0.74699998
-0.11320367 0.18495086 0.74699998
-0.11206082 0.18544605 0.74900001
-0.11061487 0.18544605 0.74900001
-0.10931467 0.18569364 0.75
-0.10786679 0.18569364 0.75
-0.10641892 0.18569364 0.75
-0.10497104 0.18569364 0.75
-0.10379922 0.18618882 0.75199997
-0.10261969 0.18668401 0.75400001
-0.1011641 0.18668401 0.75400001
-0.09984073 0.1869316 0.755
-0.098383203 0.1869316 0.755
-0.095973939 0.18792197 0.759
-0.26422298 0.17291619 0.69300002
-0.26288515 0.17291619 0.69300002
-0.26058495 0.17316571 0.69400001
-0.25999227 0.17366473 0.69599998
-0.25864863 0.17366473 0.69599998
-0.25730503 0.17366473 0.69599998
-0.25596139 0.17366473 0.69599998
-0.25461775 0.17366473 0.69599998
-0.25327411 0.17366473 0.69599998
-0.25229248 0.17391427 0.69700003
-0.25094691 0.17391427 0.69700003
-0.24960136 0.17391427 0.69700003
-0.24861197 0.17416377 0.69800001
-0.24726449 0.17416377 0.69800001
-0.24591699 0.17416377 0.69800001
-0.24456951 0.17416377 0.69800001
-0.24322201 0.17416377 0.69800001
-0.24256757 0.17466281 0.69999999
-0.2415608 0.17491232 0.70099998
-0.24089286 0.17541137 0.70300001
-0.23953572 0.17541137 0.70300001
-0.23817858 0.17541137 0.70300001
-0.23682143 0.17541137 0.70300001
-0.23546429 0.17541137 0.70300001
-0.23410715 0.17541137 0.70300001
-0.23275 0.17541137 0.70300001
-0.23139286 0.17541137 0.70300001
-0.23003572 0.17541137 0.70300001
-0.22867857 0.17541137 0.70300001
-0.22764479 0.17566088 0.704
-0.22628571 0.17566088 0.704
-0.22492664 0.17566088 0.704
-0.22356756 0.17566088 0.704
-0.22283976 0.17615992 0.70599997
-0.22179055 0.17640944 0.70700002
-0.22042568 0.17640944 0.70700002
-0.21937066 0.17665896 0.708
-0.21800387 0.17665896 0.708
-0.21663706 0.17665896 0.708
-0.21587837 0.177158 0.70999998
-0.21450771 0.177158 0.70999998
-0.21313706 0.177158 0.70999998
-0.21176641 0.177158 0.70999998
-0.21039575 0.177158 0.70999998
-0.20902508 0.177158 0.70999998
-0.20765443 0.177158 0.70999998
-0.20628378 0.177158 0.70999998
-0.20491312 0.177158 0.70999998
-0.20382915 0.17740752 0.71100003
-0.20245656 0.17740752 0.71100003
-0.20164962 0.17790656 0.713
-0.20027317 0.17790656 0.713
-0.19917567 0.17815606 0.71399999
-0.1977973 0.17815606 0.71399999
-0.19641891 0.17815606 0.71399999
-0.19504054 0.17815606 0.71399999
-0.19420464 0.17865512 0.71600002
-0.1928224 0.17865512 0.71600002
-0.19170754 0.17890462 0.71700001
-0.19032337 0.17890462 0.71700001
-0.18893918 0.17890462 0.71700001
-0.18807818 0.17940366 0.71899998
-0.18669015 0.17940366 0.71899998
-0.18478668 0.17890462 0.71700001
-0.18340251 0.17890462 0.71700001
-0.18252605 0.17940366 0.71899998
-0.18113802 0.17940366 0.71899998
-0.17975 0.17940366 0.71899998
-0.17861004 0.17965318 0.72000003
-0.17722009 0.17965318 0.72000003
-0.17631853 0.18015222 0.722
-0.17492472 0.18015222 0.722
-0.17377123 0.18040173 0.72299999
-0.17237549 0.18040173 0.72299999
-0.17097972 0.18040173 0.72299999
-0.16958398 0.18040173 0.72299999
-0.16818821 0.18040173 0.72299999
-0.16725387 0.18090078 0.72500002
-0.16631177 0.18139981 0.727
-0.1649083 0.18139981 0.727
-0.16372973 0.18164933 0.72799999
-0.16232432 0.18164933 0.72799999
-0.16091892 0.18164933 0.72799999
-0.1595135 0.18164933 0.72799999
-0.15854247 0.18214837 0.73000002
-0.15713321 0.18214837 0.73000002
-0.15593725 0.18239789 0.73100001
-0.15452607 0.18239789 0.73100001
-0.15353379 0.18289691 0.73299998
-0.15211873 0.18289691 0.73299998
-0.15070367 0.18289691 0.73299998
-0.14928861 0.18289691 0.73299998
-0.1480753 0.18314645 0.73400003
-0.1466583 0.18314645 0.73400003
-0.14524132 0.18314645 0.73400003
-0.14421621 0.18364547 0.736
-0.14240734 0.18314645 0.73400003
-0.14099035 0.18314645 0.73400003
-0.13995367 0.18364547 0.736
-0.13853282 0.18364547 0.736
-0.13748455 0.1841445 0.73799998
-0.13569112 0.18364547 0.736
-0.13427027 0.18364547 0.736
-0.13339093 0.18439403 0.73900002
-0.1319643 0.18439403 0.73900002
-0.13053764 0.18439403 0.73900002
-0.12946042 0.18489306 0.741
-0.12802993 0.18489306 0.741
-0.12677027 0.18514258 0.74199998
-0.12533784 0.18514258 0.74199998
-0.12423939 0.18564162 0.74400002
-0.12280309 0.18564162 0.74400002
-0.12169305 0.18614066 0.74599999
-0.12025289 0.18614066 0.74599999
-0.11881274 0.18614066 0.74599999
-0.11737259 0.18614066 0.74599999
-0.11608783 0.18639016 0.74699998
-0.11464575 0.18639016 0.74699998
-0.11320367 0.18639016 0.74699998
-0.11176158 0.18639016 0.74699998
-0.11061487 0.18688922 0.74900001
-0.10916892 0.18688922 0.74900001
-0.10772298 0.18688922 0.74900001
-0.10641892 0.18713872 0.75
-0.10497104 0.18713872 0.75
-0.10379922 0.18763776 0.75199997
-0.10261969 0.1881368 0.75400001
-0.10129827 0.18838632 0.755
-0.09984073 0.18838632 0.755
-0.098643824 0.18888536 0.75700003
-0.26422298 0.17425145 0.69300002
-0.26288515 0.17425145 0.69300002
-0.25924519 0.17450289 0.69400001
-0.25864863 0.17500578 0.69599998
-0.25730503 0.17500578 0.69599998
-0.25596139 0.17500578 0.69599998
-0.25461775 0.17500578 0.69599998
-0.25327411 0.17500578 0.69599998
-0.25229248 0.17525724 0.69700003
-0.25094691 0.17525724 0.69700003
-0.24960136 0.17525724 0.69700003
-0.2482558 0.17525724 0.69700003
-0.24691024 0.17525724 0.69700003
-0.24591699 0.17550868 0.69800001
-0.24456951 0.17550868 0.69800001
-0.24322201 0.17550868 0.69800001
-0.24187452 0.17550868 0.69800001
-0.24121621 0.17601156 0.69999999
-0.24020752 0.176263 0.70099998
-0.23885424 0.176263 0.70099998
-0.23750095 0.176263 0.70099998
-0.23614767 0.176263 0.70099998
-0.23546429 0.1767659 0.70300001
-0.23410715 0.1767659 0.70300001
-0.23275 0.1767659 0.70300001
-0.23139286 0.1767659 0.70300001
-0.23003572 0.1767659 0.70300001
-0.22900386 0.17701735 0.704
-0.22732143 0.1767659 0.70300001
-0.22596429 0.1767659 0.70300001
-0.22492664 0.17701735 0.704
-0.22356756 0.17701735 0.704
-0.2222085 0.17701735 0.704
-0.22147682 0.17752023 0.70599997
-0.22042568 0.17777169 0.70700002
-0.21906082 0.17777169 0.70700002
-0.21800387 0.17802313 0.708
-0.21663706 0.17802313 0.708
-0.21527027 0.17802313 0.708
-0.21390347 0.17802313 0.708
-0.21253668 0.17802313 0.708
-0.21116988 0.17802313 0.708
-0.20980309 0.17802313 0.708
-0.2084363 0.17802313 0.708
-0.20765443 0.178526 0.70999998
-0.20628378 0.178526 0.70999998
-0.20491312 0.178526 0.70999998
-0.20354247 0.178526 0.70999998
-0.20245656 0.17877746 0.71100003
-0.20164962 0.17928034 0.713
-0.20027317 0.17928034 0.713
-0.19917567 0.17953178 0.71399999
-0.1977973 0.17953178 0.71399999
-0.19641891 0.17953178 0.71399999
-0.19504054 0.17953178 0.71399999
-0.19366215 0.17953178 0.71399999
-0.1928224 0.18003468 0.71600002
-0.19144017 0.18003468 0.71600002
-0.19005792 0.18003468 0.71600002
-0.18867569 0.18003468 0.71600002
-0.18807818 0.18078901 0.71899998
-0.18669015 0.18078901 0.71899998
-0.18478668 0.18028612 0.71700001
-0.18340251 0.18028612 0.71700001
-0.18252605 0.18078901 0.71899998
-0.18113802 0.18078901 0.71899998
-0.17975 0.18078901 0.71899998
-0.17836197 0.18078901 0.71899998
-0.17722009 0.18104047 0.72000003
-0.17583013 0.18104047 0.72000003
-0.17492472 0.18154335 0.722
-0.17353089 0.18154335 0.722
-0.17213707 0.18154335 0.722
-0.17074324 0.18154335 0.722
-0.16958398 0.18179479 0.72299999
-0.16818821 0.18179479 0.72299999
-0.16725387 0.18229769 0.72500002
-0.16631177 0.18280058 0.727
-0.1649083 0.18280058 0.727
-0.16350482 0.18280058 0.727
-0.16232432 0.18305202 0.72799999
-0.16091892 0.18305202 0.72799999
-0.1595135 0.18305202 0.72799999
-0.15854247 0.18355492 0.73000002
-0.15713321 0.18355492 0.73000002
-0.15572394 0.18355492 0.73000002
-0.15452607 0.18380636 0.73100001
-0.15311487 0.18380636 0.73100001
-0.15211873 0.18430924 0.73299998
-0.15070367 0.18430924 0.73299998
-0.14928861 0.18430924 0.73299998
-0.14787355 0.18430924 0.73299998
-0.14645849 0.18430924 0.73299998
-0.14524132 0.1845607 0.73400003
-0.14421621 0.18506359 0.736
-0.14240734 0.1845607 0.73400003
-0.14099035 0.1845607 0.73400003
-0.13995367 0.18506359 0.736
-0.13853282 0.18506359 0.736
-0.13711198 0.18506359 0.736
-0.13569112 0.18506359 0.736
-0.13427027 0.18506359 0.736
-0.13284943 0.18506359 0.736
-0.1319643 0.18581793 0.73900002
-0.13053764 0.18581793 0.73900002
-0.12911101 0.18581793 0.73900002
-0.12802993 0.18632081 0.741
-0.12659942 0.18632081 0.741
-0.12533784 0.18657225 0.74199998
-0.12390541 0.18657225 0.74199998
-0.12280309 0.18707515 0.74400002
-0.1213668 0.18707515 0.74400002
-0.11993051 0.18707515 0.74400002
-0.11849421 0.18707515 0.74400002
-0.11705792 0.18707515 0.74400002
-0.11593243 0.18757804 0.74599999
-0.11449227 0.18757804 0.74599999
-0.11305212 0.18757804 0.74599999
-0.11176158 0.18782948 0.74699998
-0.11061487 0.18833238 0.74900001
-0.10916892 0.18833238 0.74900001
-0.10772298 0.18833238 0.74900001
-0.10641892 0.18858382 0.75
-0.10497104 0.18858382 0.75
-0.10379922 0.18908671 0.75199997
-0.10261969 0.1895896 0.75400001
-0.10129827 0.18984103 0.755
-0.10010522 0.19034393 0.75700003
-0.098643824 0.19034393 0.75700003
-0.25790539 0.17584008 0.69400001
-0.25656563 0.17584008 0.69400001
-0.25522587 0.17584008 0.69400001
-0.25461775 0.17634681 0.69599998
-0.25327411 0.17634681 0.69599998
-0.25193051 0.17634681 0.69599998
-0.25058687 0.17634681 0.69599998
-0.24924323 0.17634681 0.69599998
-0.2482558 0.1766002 0.69700003
-0.24691024 0.1766002 0.69700003
-0.24556468 0.1766002 0.69700003
-0.24421912 0.1766002 0.69700003
-0.24287356 0.1766002 0.69700003
-0.241528 0.1766002 0.69700003
-0.24052703 0.17685357 0.69800001
-0.23986486 0.17736031 0.69999999
-0.23851351 0.17736031 0.69999999
-0.23716216 0.17736031 0.69999999
-0.2358108 0.17736031 0.69999999
-0.23479439 0.17761368 0.70099998
-0.23410715 0.17812042 0.70300001
-0.23208784 0.17761368 0.70099998
-0.23073454 0.17761368 0.70099998
-0.22938126 0.17761368 0.70099998
-0.22867857 0.17812042 0.70300001
-0.22732143 0.17812042 0.70300001
-0.22596429 0.17812042 0.70300001
-0.22460714 0.17812042 0.70300001
-0.22325 0.17812042 0.70300001
-0.2222085 0.1783738 0.704
-0.22084942 0.1783738 0.704
-0.22042568 0.17913392 0.70700002
-0.21906082 0.17913392 0.70700002
-0.21800387 0.17938729 0.708
-0.21663706 0.17938729 0.708
-0.21527027 0.17938729 0.708
-0.21390347 0.17938729 0.708
-0.21253668 0.17938729 0.708
-0.21116988 0.17938729 0.708
-0.20980309 0.17938729 0.708
-0.2084363 0.17938729 0.708
-0.20765443 0.17989402 0.70999998
-0.20628378 0.17989402 0.70999998
-0.20491312 0.17989402 0.70999998
-0.20354247 0.17989402 0.70999998
-0.2021718 0.17989402 0.70999998
-0.20164962 0.18065414 0.713
-0.20027317 0.18065414 0.713
-0.19889672 0.18065414 0.713
-0.19752027 0.18065414 0.713
-0.19614382 0.18065414 0.713
-0.19504054 0.18090752 0.71399999
-0.19366215 0.18090752 0.71399999
-0.19228378 0.18090752 0.71399999
-0.19144017 0.18141426 0.71600002
-0.19005792 0.18141426 0.71600002
-0.18867569 0.18141426 0.71600002
-0.18755502 0.18166763 0.71700001
-0.18617085 0.18166763 0.71700001
-0.18478668 0.18166763 0.71700001
-0.18340251 0.18166763 0.71700001
-0.18201834 0.18166763 0.71700001
-0.18063417 0.18166763 0.71700001
-0.17836197 0.18217437 0.71899998
-0.17697394 0.18217437 0.71899998
-0.17583013 0.18242775 0.72000003
-0.17444016 0.18242775 0.72000003
-0.17353089 0.18293449 0.722
-0.17213707 0.18293449 0.722
-0.17074324 0.18293449 0.722
-0.16934942 0.18293449 0.722
-0.16795559 0.18293449 0.722
-0.16679247 0.18318786 0.72299999
-0.16585425 0.18369462 0.72500002
-0.1649083 0.18420134 0.727
-0.16350482 0.18420134 0.727
-0.16232432 0.18445472 0.72799999
-0.16091892 0.18445472 0.72799999
-0.1595135 0.18445472 0.72799999
-0.1581081 0.18445472 0.72799999
-0.1567027 0.18445472 0.72799999
-0.15572394 0.18496147 0.73000002
-0.15431468 0.18496147 0.73000002
-0.15311487 0.18521483 0.73100001
-0.15170367 0.18521483 0.73100001
-0.15070367 0.18572158 0.73299998
-0.14928861 0.18572158 0.73299998
-0.14787355 0.18572158 0.73299998
-0.14645849 0.18572158 0.73299998
-0.14524132 0.18597496 0.73400003
-0.14382432 0.18597496 0.73400003
-0.14240734 0.18597496 0.73400003
-0.14099035 0.18597496 0.73400003
-0.13957337 0.18597496 0.73400003
-0.13815637 0.18597496 0.73400003
-0.13673939 0.18597496 0.73400003
-0.13532239 0.18597496 0.73400003
-0.13390541 0.18597496 0.73400003
-0.13248841 0.18597496 0.73400003
-0.13178571 0.18698843 0.73799998
-0.13036101 0.18698843 0.73799998
-0.12911101 0.18724182 0.73900002
-0.12768437 0.18724182 0.73900002
-0.12659942 0.18774855 0.741
-0.12516892 0.18774855 0.741
-0.12373842 0.18774855 0.741
-0.12247297 0.18800192 0.74199998
-0.12104054 0.18800192 0.74199998
-0.11993051 0.18850867 0.74400002
-0.11849421 0.18850867 0.74400002
-0.11705792 0.18850867 0.74400002
-0.11593243 0.18901542 0.74599999
-0.11449227 0.18901542 0.74599999
-0.11305212 0.18901542 0.74599999
-0.11161197 0.18901542 0.74599999
-0.1103195 0.18926878 0.74699998
-0.10772298 0.18977553 0.74900001
-0.10641892 0.19002891 0.75
-0.10497104 0.19002891 0.75
-0.10379922 0.19053563 0.75199997
-0.10261969 0.19104239 0.75400001
-0.10129827 0.19129576 0.755
-0.25753379 0.17692196 0.69300002
-0.25619596 0.17692196 0.69300002
-0.25485811 0.17692196 0.69300002
-0.2538861 0.17717727 0.69400001
-0.25327411 0.17768785 0.69599998
-0.25193051 0.17768785 0.69599998
-0.2498668 0.17717727 0.69400001
-0.24852704 0.17717727 0.69400001
-0.24789961 0.17768785 0.69599998
-0.24655598 0.17768785 0.69599998
-0.24521235 0.17768785 0.69599998
-0.24386872 0.17768785 0.69599998
-0.24252509 0.17768785 0.69599998
-0.241528 0.17794317 0.69700003
-0.24052703 0.17819846 0.69800001
-0.23917954 0.17819846 0.69800001
-0.23783205 0.17819846 0.69800001
-0.23648456 0.17819846 0.69800001
-0.23513708 0.17819846 0.69800001
-0.23445946 0.17870906 0.69999999
-0.2331081 0.17870906 0.69999999
-0.23208784 0.17896435 0.70099998
-0.23073454 0.17896435 0.70099998
-0.22938126 0.17896435 0.70099998
-0.22867857 0.17947495 0.70300001
-0.22667471 0.17896435 0.70099998
-0.22532143 0.17896435 0.70099998
-0.22460714 0.17947495 0.70300001
-0.22325 0.17947495 0.70300001
-0.22189286 0.17947495 0.70300001
-0.22084942 0.17973025 0.704
-0.21949035 0.17973025 0.704
-0.21906082 0.18049616 0.70700002
-0.21800387 0.18075144 0.708
-0.21663706 0.18075144 0.708
-0.21527027 0.18075144 0.708
-0.21390347 0.18075144 0.708
-0.21253668 0.18075144 0.708
-0.21116988 0.18075144 0.708
-0.20980309 0.18075144 0.708
-0.2084363 0.18075144 0.708
-0.2070695 0.18075144 0.708
-0.20628378 0.18126203 0.70999998
-0.20491312 0.18126203 0.70999998
-0.20354247 0.18126203 0.70999998
-0.2021718 0.18126203 0.70999998
-0.20108399 0.18151735 0.71100003
-0.1997114 0.18151735 0.71100003
-0.19833881 0.18151735 0.71100003
-0.19696622 0.18151735 0.71100003
-0.19614382 0.18202794 0.713
-0.19476737 0.18202794 0.713
-0.19366215 0.18228324 0.71399999
-0.19228378 0.18228324 0.71399999
-0.19090541 0.18228324 0.71399999
-0.18952702 0.18228324 0.71399999
-0.18867569 0.18279384 0.71600002
-0.18729344 0.18279384 0.71600002
-0.18617085 0.18304913 0.71700001
-0.18478668 0.18304913 0.71700001
-0.18340251 0.18304913 0.71700001
-0.18201834 0.18304913 0.71700001
-0.18063417 0.18304913 0.71700001
-0.17925 0.18304913 0.71700001
-0.17836197 0.18355973 0.71899998
-0.17697394 0.18355973 0.71899998
-0.1755859 0.18355973 0.71899998
-0.17444016 0.18381503 0.72000003
-0.17305019 0.18381503 0.72000003
-0.17166024 0.18381503 0.72000003
-0.17027028 0.18381503 0.72000003
-0.16888031 0.18381503 0.72000003
-0.16749035 0.18381503 0.72000003
-0.16679247 0.18458092 0.72299999
-0.16539672 0.18458092 0.72299999
-0.16445464 0.18509153 0.72500002
-0.16305502 0.18509153 0.72500002
-0.16210136 0.18560211 0.727
-0.16069788 0.18560211 0.727
-0.1595135 0.18585742 0.72799999
-0.1581081 0.18585742 0.72799999
-0.1567027 0.18585742 0.72799999
-0.15529729 0.18585742 0.72799999
-0.15431468 0.18636802 0.73000002
-0.1529054 0.18636802 0.73000002
-0.15170367 0.18662332 0.73100001
-0.15029247 0.18662332 0.73100001
-0.14888127 0.18662332 0.73100001
-0.14787355 0.18713391 0.73299998
-0.14645849 0.18713391 0.73299998
-0.14504343 0.18713391 0.73299998
-0.14362837 0.18713391 0.73299998
-0.14240734 0.18738921 0.73400003
-0.14099035 0.18738921 0.73400003
-0.13957337 0.18738921 0.73400003
-0.13815637 0.18738921 0.73400003
-0.13673939 0.18738921 0.73400003
-0.13532239 0.18738921 0.73400003
-0.13390541 0.18738921 0.73400003
-0.13248841 0.18738921 0.73400003
-0.13178571 0.1884104 0.73799998
-0.13036101 0.1884104 0.73799998
-0.12893629 0.1884104 0.73799998
-0.12751158 0.1884104 0.73799998
-0.12625773 0.1886657 0.73900002
-0.12483109 0.1886657 0.73900002
-0.12373842 0.18917631 0.741
-0.12230791 0.18917631 0.741
-0.12087741 0.18917631 0.741
-0.1196081 0.18943159 0.74199998
-0.11449227 0.1904528 0.74599999
-0.11305212 0.1904528 0.74599999
-0.11161197 0.1904528 0.74599999
-0.10916892 0.19121869 0.74900001
-0.10772298 0.19121869 0.74900001
-0.10641892 0.19147399 0.75
-0.10497104 0.19147399 0.75
-0.10379922 0.19198458 0.75199997
-0.10261969 0.19249518 0.75400001
-0.25545657 0.17774276 0.69099998
-0.25412259 0.17774276 0.69099998
-0.25352028 0.17825723 0.69300002
-0.25218245 0.17825723 0.69300002
-0.2508446 0.17825723 0.69300002
-0.2498668 0.17851445 0.69400001
-0.24852704 0.17851445 0.69400001
-0.24718726 0.17851445 0.69400001
-0.24584749 0.17851445 0.69400001
-0.24450773 0.17851445 0.69400001
-0.24316795 0.17851445 0.69400001
-0.24182819 0.17851445 0.69400001
-0.241528 0.17928614 0.69700003
-0.24018244 0.17928614 0.69700003
-0.23883688 0.17928614 0.69700003
-0.23783205 0.17954336 0.69800001
-0.23648456 0.17954336 0.69800001
-0.23513708 0.17954336 0.69800001
-0.23378958 0.17954336 0.69800001
-0.2331081 0.18005779 0.69999999
-0.23208784 0.18031502 0.70099998
-0.23073454 0.18031502 0.70099998
-0.22938126 0.18031502 0.70099998
-0.22802798 0.18031502 0.70099998
-0.22667471 0.18031502 0.70099998
-0.22532143 0.18031502 0.70099998
-0.22460714 0.18082948 0.70300001
-0.22325 0.18082948 0.70300001
-0.22189286 0.18082948 0.70300001
-0.22053571 0.18082948 0.70300001
-0.21949035 0.1810867 0.704
-0.21813127 0.1810867 0.704
-0.21738802 0.18160115 0.70599997
-0.21496622 0.18185839 0.70700002
-0.21360135 0.18185839 0.70700002
-0.21253668 0.18211561 0.708
-0.21116988 0.18211561 0.708
-0.20980309 0.18211561 0.708
-0.2084363 0.18211561 0.708
-0.2070695 0.18211561 0.708
-0.20570271 0.18211561 0.708
-0.20433591 0.18211561 0.708
-0.20354247 0.18263005 0.70999998
-0.2021718 0.18263005 0.70999998
-0.20080115 0.18263005 0.70999998
-0.1994305 0.18263005 0.70999998
-0.19805984 0.18263005 0.70999998
-0.19668919 0.18263005 0.70999998
-0.19559364 0.18288729 0.71100003
-0.19422105 0.18288729 0.71100003
-0.19339092 0.18340173 0.713
-0.19201449 0.18340173 0.713
-0.19063804 0.18340173 0.713
-0.18926159 0.18340173 0.713
-0.18814865 0.18365896 0.71399999
-0.18729344 0.18417342 0.71600002
-0.18591121 0.18417342 0.71600002
-0.18452896 0.18417342 0.71600002
-0.18314673 0.18417342 0.71600002
-0.18201834 0.18443064 0.71700001
-0.18063417 0.18443064 0.71700001
-0.17925 0.18443064 0.71700001
-0.17786583 0.18443064 0.71700001
-0.17648166 0.18443064 0.71700001
-0.1755859 0.18494508 0.71899998
-0.17419787 0.18494508 0.71899998
-0.17305019 0.18520232 0.72000003
-0.17166024 0.18520232 0.72000003
-0.17027028 0.18520232 0.72000003
-0.16888031 0.18520232 0.72000003
-0.16749035 0.18520232 0.72000003
-0.16656178 0.18571676 0.722
-0.16516796 0.18571676 0.722
-0.16400096 0.18597399 0.72299999
-0.16305502 0.18648845 0.72500002
-0.16210136 0.18700288 0.727
-0.16069788 0.18700288 0.727
-0.1592944 0.18700288 0.727
-0.15789093 0.18700288 0.727
-0.15648745 0.18700288 0.727
-0.15508397 0.18700288 0.727
-0.15389189 0.18726011 0.72799999
-0.15248649 0.18726011 0.72799999
-0.15149614 0.18777457 0.73000002
-0.15029247 0.18803179 0.73100001
-0.14888127 0.18803179 0.73100001
-0.14747007 0.18803179 0.73100001
-0.14645849 0.18854624 0.73299998
-0.14504343 0.18854624 0.73299998
-0.14362837 0.18854624 0.73299998
-0.14221331 0.18854624 0.73299998
-0.14079826 0.18854624 0.73299998
-0.13957337 0.18880348 0.73400003
-0.13815637 0.18880348 0.73400003
-0.13673939 0.18880348 0.73400003
-0.13532239 0.18880348 0.73400003
-0.13390541 0.18880348 0.73400003
-0.13248841 0.18880348 0.73400003
-0.13142857 0.18931793 0.736
-0.13000773 0.18931793 0.736
-0.12858687 0.18931793 0.736
-0.12751158 0.18983236 0.73799998
-0.12608688 0.18983236 0.73799998
-0.12483109 0.1900896 0.73900002
-0.12340444 0.1900896 0.73900002
-0.12230791 0.19060405 0.741
-0.12087741 0.19060405 0.741
-0.10772298 0.19266185 0.74900001
-0.10641892 0.19291908 0.75
-0.10497104 0.19291908 0.75
-0.10379922 0.19343352 0.75199997
-0.25508687 0.17881502 0.69
-0.25375482 0.17881502 0.69
-0.2527886 0.17907418 0.69099998
-0.25218245 0.17959249 0.69300002
-0.2508446 0.17959249 0.69300002
-0.24950676 0.17959249 0.69300002
-0.24816893 0.17959249 0.69300002
-0.24683109 0.17959249 0.69300002
-0.24549325 0.17959249 0.69300002
-0.24415541 0.17959249 0.69300002
-0.24281758 0.17959249 0.69300002
-0.24182819 0.17985164 0.69400001
-0.24118146 0.18036994 0.69599998
-0.23983783 0.18036994 0.69599998
-0.2384942 0.18036994 0.69599998
-0.23749132 0.1806291 0.69700003
-0.23614576 0.1806291 0.69700003
-0.2348002 0.1806291 0.69700003
-0.23378958 0.18088825 0.69800001
-0.2331081 0.18140654 0.69999999
-0.23175675 0.18140654 0.69999999
-0.23040541 0.18140654 0.69999999
-0.22938126 0.1816657 0.70099998
-0.22802798 0.1816657 0.70099998
-0.22667471 0.1816657 0.70099998
-0.22532143 0.1816657 0.70099998
-0.22396813 0.1816657 0.70099998
-0.22261485 0.1816657 0.70099998
-0.22189286 0.18218401 0.70300001
-0.22053571 0.18218401 0.70300001
-0.21917857 0.18218401 0.70300001
-0.21813127 0.18244316 0.704
-0.2167722 0.18244316 0.704
-0.21541312 0.18244316 0.704
-0.21405405 0.18244316 0.704
-0.21269497 0.18244316 0.704
-0.21223649 0.18322062 0.70700002
-0.21116988 0.18347977 0.708
-0.20980309 0.18347977 0.708
-0.2084363 0.18347977 0.708
-0.2070695 0.18347977 0.708
-0.20570271 0.18347977 0.708
-0.20433591 0.18347977 0.708
-0.20296912 0.18347977 0.708
-0.20160232 0.18347977 0.708
-0.20023552 0.18347977 0.708
-0.1994305 0.18399806 0.70999998
-0.19805984 0.18399806 0.70999998
-0.19668919 0.18399806 0.70999998
-0.19531852 0.18399806 0.70999998
-0.19422105 0.18425724 0.71100003
-0.19339092 0.18477553 0.713
-0.19201449 0.18477553 0.713
-0.19063804 0.18477553 0.713
-0.18926159 0.18477553 0.713
-0.18788514 0.18477553 0.713
-0.18677026 0.18503468 0.71399999
-0.18591121 0.18555298 0.71600002
-0.18452896 0.18555298 0.71600002
-0.18314673 0.18555298 0.71600002
-0.18176448 0.18555298 0.71600002
-0.18038225 0.18555298 0.71600002
-0.17900001 0.18555298 0.71600002
-0.17786583 0.18581215 0.71700001
-0.17648166 0.18581215 0.71700001
-0.1750975 0.18581215 0.71700001
-0.17419787 0.18633044 0.71899998
-0.17305019 0.1865896 0.72000003
-0.17166024 0.1865896 0.72000003
-0.17027028 0.1865896 0.72000003
-0.16888031 0.1865896 0.72000003
-0.16749035 0.1865896 0.72000003
-0.16656178 0.18710791 0.722
-0.16516796 0.18710791 0.722
-0.16377413 0.18710791 0.722
-0.16260521 0.18736705 0.72299999
-0.16165541 0.18788536 0.72500002
-0.16025579 0.18788536 0.72500002
-0.15885618 0.18788536 0.72500002
-0.15789093 0.18840367 0.727
-0.15648745 0.18840367 0.727
-0.15508397 0.18840367 0.727
-0.1536805 0.18840367 0.727
-0.15227702 0.18840367 0.727
-0.15087356 0.18840367 0.727
-0.14967567 0.18866281 0.72799999
-0.14867762 0.18918112 0.73000002
-0.14747007 0.18944027 0.73100001
-0.14605889 0.18944027 0.73100001
-0.14504343 0.18995857 0.73299998
-0.14362837 0.18995857 0.73299998
-0.14221331 0.18995857 0.73299998
-0.14079826 0.18995857 0.73299998
-0.1393832 0.18995857 0.73299998
-0.13796814 0.18995857 0.73299998
-0.13655308 0.18995857 0.73299998
-0.13513802 0.18995857 0.73299998
-0.13372298 0.18995857 0.73299998
-0.13248841 0.19021773 0.73400003
-0.13107143 0.19021773 0.73400003
-0.13000773 0.19073603 0.736
-0.12858687 0.19073603 0.736
-0.12716602 0.19073603 0.736
-0.12608688 0.19125433 0.73799998
-0.12483109 0.19151349 0.73900002
-0.12340444 0.19151349 0.73900002
-0.2530193 0.17962235 0.68800002
-0.25169113 0.17962235 0.68800002
-0.25109074 0.1801445 0.69
-0.25012064 0.18040559 0.69099998
-0.24878667 0.18040559 0.69099998
-0.24816893 0.18092775 0.69300002
-0.24683109 0.18092775 0.69300002
-0.24549325 0.18092775 0.69300002
-0.24415541 0.18092775 0.69300002
-0.24281758 0.18092775 0.69300002
-0.24147974 0.18092775 0.69300002
-0.2401419 0.18092775 0.69300002
-0.23983783 0.18171097 0.69599998
-0.2384942 0.18171097 0.69599998
-0.23715058 0.18171097 0.69599998
-0.23580694 0.18171097 0.69599998
-0.2348002 0.18197207 0.69700003
-0.23345464 0.18197207 0.69700003
-0.23210908 0.18197207 0.69700003
-0.23175675 0.18275529 0.69999999
-0.23040541 0.18275529 0.69999999
-0.22905405 0.18275529 0.69999999
-0.22802798 0.18301637 0.70099998
-0.22667471 0.18301637 0.70099998
-0.22532143 0.18301637 0.70099998
-0.22396813 0.18301637 0.70099998
-0.22261485 0.18301637 0.70099998
-0.22189286 0.18353854 0.70300001
-0.22053571 0.18353854 0.70300001
-0.21917857 0.18353854 0.70300001
-0.21813127 0.18379961 0.704
-0.2167722 0.18379961 0.704
-0.21541312 0.18379961 0.704
-0.21405405 0.18379961 0.704
-0.21269497 0.18379961 0.704
-0.21193628 0.18432176 0.70599997
-0.21087162 0.18458286 0.70700002
-0.20950677 0.18458286 0.70700002
-0.20814189 0.18458286 0.70700002
-0.20677704 0.18458286 0.70700002
-0.20570271 0.18484393 0.708
-0.20433591 0.18484393 0.708
-0.20296912 0.18484393 0.708
-0.20160232 0.18484393 0.708
-0.20023552 0.18484393 0.708
-0.19886872 0.18484393 0.708
-0.19750193 0.18484393 0.708
-0.19613513 0.18484393 0.708
-0.19531852 0.18536608 0.70999998
-0.19394787 0.18536608 0.70999998
-0.19257721 0.18536608 0.70999998
-0.19147587 0.18562718 0.71100003
-0.19010329 0.18562718 0.71100003
-0.1887307 0.18562718 0.71100003
-0.18788514 0.18614933 0.713
-0.18677026 0.1864104 0.71399999
-0.18539189 0.1864104 0.71399999
-0.18401352 0.1864104 0.71399999
-0.18263513 0.1864104 0.71399999
-0.18176448 0.18693256 0.71600002
-0.18038225 0.18693256 0.71600002
-0.17900001 0.18693256 0.71600002
-0.17761776 0.18693256 0.71600002
-0.17648166 0.18719365 0.71700001
-0.1750975 0.18719365 0.71700001
-0.17419787 0.1877158 0.71899998
-0.17280984 0.1877158 0.71899998
-0.17166024 0.18797688 0.72000003
-0.17027028 0.18797688 0.72000003
-0.16888031 0.18797688 0.72000003
-0.16749035 0.18797688 0.72000003
-0.1661004 0.18797688 0.72000003
-0.16516796 0.18849903 0.722
-0.16377413 0.18849903 0.722
-0.16238031 0.18849903 0.722
-0.16120946 0.18876012 0.72299999
-0.1598137 0.18876012 0.72299999
-0.15841796 0.18876012 0.72299999
-0.15745656 0.18928228 0.72500002
-0.15605696 0.18928228 0.72500002
-0.15465733 0.18928228 0.72500002
-0.1536805 0.18980443 0.727
-0.15227702 0.18980443 0.727
-0.15087356 0.18980443 0.727
-0.14947008 0.18980443 0.727
-0.1480666 0.18980443 0.727
-0.14686486 0.1900655 0.72799999
-0.14444982 0.19058767 0.73000002
-0.14323649 0.19084875 0.73100001
-0.14182529 0.19084875 0.73100001
-0.14079826 0.1913709 0.73299998
-0.1393832 0.1913709 0.73299998
-0.13796814 0.1913709 0.73299998
-0.13655308 0.1913709 0.73299998
-0.13513802 0.1913709 0.73299998
-0.13372298 0.1913709 0.73299998
-0.13248841 0.19163199 0.73400003
-0.13107143 0.19163199 0.73400003
-0.13000773 0.19215414 0.736
-0.12858687 0.19215414 0.736
-0.12716602 0.19215414 0.736
-0.12574518 0.19215414 0.736
-0.12466216 0.19267629 0.73799998
-0.2530193 0.18094799 0.68800002
-0.25169113 0.18094799 0.68800002
-0.25036293 0.18094799 0.68800002
-0.24975869 0.18147399 0.69
-0.24878667 0.18173699 0.69099998
-0.24745269 0.18173699 0.69099998
-0.24611872 0.18173699 0.69099998
-0.24478474 0.18173699 0.69099998
-0.24345076 0.18173699 0.69099998
-0.24281758 0.18226302 0.69300002
-0.24147974 0.18226302 0.69300002
-0.2401419 0.18226302 0.69300002
-0.23914865 0.18252601 0.69400001
-0.23780888 0.18252601 0.69400001
-0.23715058 0.18305202 0.69599998
-0.23580694 0.18305202 0.69599998
-0.2348002 0.18331504 0.69700003
-0.23345464 0.18331504 0.69700003
-0.23210908 0.18331504 0.69700003
-0.2310946 0.18357804 0.69800001
-0.2297471 0.18357804 0.69800001
-0.22839962 0.18357804 0.69800001
-0.22770269 0.18410404 0.69999999
-0.22667471 0.18436705 0.70099998
-0.22532143 0.18436705 0.70099998
-0.22396813 0.18436705 0.70099998
-0.22261485 0.18436705 0.70099998
-0.22126158 0.18436705 0.70099998
-0.2199083 0.18436705 0.70099998
-0.21917857 0.18489307 0.70300001
-0.21782143 0.18489307 0.70300001
-0.21646428 0.18489307 0.70300001
-0.21510714 0.18489307 0.70300001
-0.21405405 0.18515606 0.704
-0.21269497 0.18515606 0.704
-0.21133591 0.18515606 0.704
-0.21057335 0.18568207 0.70599997
-0.20950677 0.18594509 0.70700002
-0.20814189 0.18594509 0.70700002
-0.20677704 0.18594509 0.70700002
-0.20541216 0.18594509 0.70700002
-0.20433591 0.1862081 0.708
-0.20296912 0.1862081 0.708
-0.20160232 0.1862081 0.708
-0.20023552 0.1862081 0.708
-0.19886872 0.1862081 0.708
-0.19750193 0.1862081 0.708
-0.19613513 0.1862081 0.708
-0.19531852 0.1867341 0.70999998
-0.19394787 0.1867341 0.70999998
-0.19257721 0.1867341 0.70999998
-0.19147587 0.18699712 0.71100003
-0.19010329 0.18699712 0.71100003
-0.1887307 0.18699712 0.71100003
-0.18735811 0.18699712 0.71100003
-0.18650869 0.18752313 0.713
-0.18513224 0.18752313 0.713
-0.18401352 0.18778612 0.71399999
-0.18263513 0.18778612 0.71399999
-0.18125676 0.18778612 0.71399999
-0.17987837 0.18778612 0.71399999
-0.1785 0.18778612 0.71399999
-0.17761776 0.18831214 0.71600002
-0.17623553 0.18831214 0.71600002
-0.1750975 0.18857515 0.71700001
-0.17371333 0.18857515 0.71700001
-0.17280984 0.18910114 0.71899998
-0.17142181 0.18910114 0.71899998
-0.17003378 0.18910114 0.71899998
-0.16888031 0.18936417 0.72000003
-0.16749035 0.18936417 0.72000003
-0.1661004 0.18936417 0.72000003
-0.16471043 0.18936417 0.72000003
-0.16377413 0.18989018 0.722
-0.16238031 0.18989018 0.722
-0.16120946 0.19015318 0.72299999
-0.1598137 0.19015318 0.72299999
-0.15841796 0.19015318 0.72299999
-0.15702219 0.19015318 0.72299999
-0.15562645 0.19015318 0.72299999
-0.15465733 0.19067919 0.72500002
-0.15325773 0.19067919 0.72500002
-0.1504585 0.19067919 0.72500002
-0.14905888 0.19067919 0.72500002
-0.1480666 0.1912052 0.727
-0.14666313 0.1912052 0.727
-0.14585908 0.19199422 0.73000002
-0.14304054 0.19199422 0.73000002
-0.14182529 0.19225723 0.73100001
-0.14041409 0.19225723 0.73100001
-0.1393832 0.19278324 0.73299998
-0.13796814 0.19278324 0.73299998
-0.13655308 0.19278324 0.73299998
-0.13513802 0.19278324 0.73299998
-0.13372298 0.19278324 0.73299998
-0.13248841 0.19304626 0.73400003
-0.13107143 0.19304626 0.73400003
-0.12965445 0.19304626 0.73400003
-0.12823746 0.19304626 0.73400003
-0.12682047 0.19304626 0.73400003
-0.12574518 0.19357225 0.736
-0.12432432 0.19357225 0.736
-0.2543475 0.18227361 0.68800002
-0.2530193 0.18227361 0.68800002
-0.25169113 0.18227361 0.68800002
-0.25036293 0.18227361 0.68800002
-0.24975869 0.18280347 0.69
-0.24878667 0.18306839 0.69099998
-0.24745269 0.18306839 0.69099998
-0.24611872 0.18306839 0.69099998
-0.24478474 0.18306839 0.69099998
-0.24345076 0.18306839 0.69099998
-0.24211679 0.18306839 0.69099998
-0.24147974 0.18359827 0.69300002
-0.2401419 0.18359827 0.69300002
-0.23914865 0.18386319 0.69400001
-0.23780888 0.18386319 0.69400001
-0.23646912 0.18386319 0.69400001
-0.23580694 0.18439306 0.69599998
-0.23446332 0.18439306 0.69599998
-0.23311968 0.18439306 0.69599998
-0.23177606 0.18439306 0.69599998
-0.23076352 0.18465801 0.69700003
-0.22941796 0.18465801 0.69700003
-0.22839962 0.18492293 0.69800001
-0.22705212 0.18492293 0.69800001
-0.22570464 0.18492293 0.69800001
-0.22435714 0.18492293 0.69800001
-0.22364864 0.18545279 0.69999999
-0.2222973 0.18545279 0.69999999
-0.22094594 0.18545279 0.69999999
-0.2195946 0.18545279 0.69999999
-0.21824324 0.18545279 0.69999999
-0.21782143 0.18624759 0.70300001
-0.21646428 0.18624759 0.70300001
-0.21510714 0.18624759 0.70300001
-0.21375 0.18624759 0.70300001
-0.21239287 0.18624759 0.70300001
-0.21133591 0.18651253 0.704
-0.20997684 0.18651253 0.704
-0.20861776 0.18651253 0.704
-0.20784748 0.18704239 0.70599997
-0.20648454 0.18704239 0.70599997
-0.20512161 0.18704239 0.70599997
-0.20404731 0.18730733 0.70700002
-0.20268244 0.18730733 0.70700002
-0.20131758 0.18730733 0.70700002
-0.20023552 0.18757226 0.708
-0.19886872 0.18757226 0.708
-0.19750193 0.18757226 0.708
-0.19613513 0.18757226 0.708
-0.19531852 0.18810211 0.70999998
-0.19394787 0.18810211 0.70999998
-0.19257721 0.18810211 0.70999998
-0.19120656 0.18810211 0.70999998
-0.18983591 0.18810211 0.70999998
-0.1887307 0.18836705 0.71100003
-0.18735811 0.18836705 0.71100003
-0.18598552 0.18836705 0.71100003
-0.18461294 0.18836705 0.71100003
-0.18375579 0.18889692 0.713
-0.18263513 0.18916185 0.71399999
-0.18125676 0.18916185 0.71399999
-0.17987837 0.18916185 0.71399999
-0.1785 0.18916185 0.71399999
-0.17761776 0.18969172 0.71600002
-0.17623553 0.18969172 0.71600002
-0.17485328 0.18969172 0.71600002
-0.17371333 0.18995665 0.71700001
-0.17280984 0.19048651 0.71899998
-0.17142181 0.19048651 0.71899998
-0.17003378 0.19048651 0.71899998
-0.16864575 0.19048651 0.71899998
-0.16749035 0.19075145 0.72000003
-0.1661004 0.19075145 0.72000003
-0.16471043 0.19075145 0.72000003
-0.16332047 0.19075145 0.72000003
-0.16238031 0.1912813 0.722
-0.16098648 0.1912813 0.722
-0.15959266 0.1912813 0.722
-0.15819885 0.1912813 0.722
-0.15702219 0.19154625 0.72299999
-0.15562645 0.19154625 0.72299999
-0.1542307 0.19154625 0.72299999
-0.15283494 0.19154625 0.72299999
-0.14666313 0.19260597 0.727
-0.14545946 0.1928709 0.72799999
-0.14405406 0.1928709 0.72799999
-0.14304054 0.19340077 0.73000002
-0.14163128 0.19340077 0.73000002
-0.14022201 0.19340077 0.73000002
-0.1390029 0.1936657 0.73100001
-0.1375917 0.1936657 0.73100001
-0.13655308 0.19419557 0.73299998
-0.13513802 0.19419557 0.73299998
-0.13372298 0.19419557 0.73299998
-0.13230792 0.19419557 0.73299998
-0.13107143 0.19446051 0.73400003
-0.12965445 0.19446051 0.73400003
-0.12823746 0.19446051 0.73400003
-0.2530193 0.18359923 0.68800002
-0.25169113 0.18359923 0.68800002
-0.25036293 0.18359923 0.68800002
-0.24975869 0.18413295 0.69
-0.24842665 0.18413295 0.69
-0.24709459 0.18413295 0.69
-0.24611872 0.1843998 0.69099998
-0.24478474 0.1843998 0.69099998
-0.24345076 0.1843998 0.69099998
-0.24211679 0.1843998 0.69099998
-0.24147974 0.18493353 0.69300002
-0.2401419 0.18493353 0.69300002
-0.23914865 0.18520039 0.69400001
-0.23780888 0.18520039 0.69400001
-0.23646912 0.18520039 0.69400001
-0.23580694 0.18573409 0.69599998
-0.23446332 0.18573409 0.69599998
-0.23311968 0.18573409 0.69599998
-0.23177606 0.18573409 0.69599998
-0.23043242 0.18573409 0.69599998
-0.22941796 0.18600097 0.69700003
-0.2280724 0.18600097 0.69700003
-0.22672684 0.18600097 0.69700003
-0.22570464 0.18626782 0.69800001
-0.22435714 0.18626782 0.69800001
-0.22300966 0.18626782 0.69800001
-0.2222973 0.18680154 0.69999999
-0.22031468 0.18626782 0.69800001
-0.21896718 0.18626782 0.69800001
-0.21824324 0.18680154 0.69999999
-0.21689188 0.18680154 0.69999999
-0.21584845 0.18706839 0.70099998
-0.21449517 0.18706839 0.70099998
-0.21375 0.18760212 0.70300001
-0.21239287 0.18760212 0.70300001
-0.21103571 0.18760212 0.70300001
-0.20967858 0.18760212 0.70300001
-0.20832144 0.18760212 0.70300001
-0.20725869 0.18786898 0.704
-0.20589961 0.18786898 0.704
-0.20512161 0.18840268 0.70599997
-0.20375867 0.18840268 0.70599997
-0.20268244 0.18866956 0.70700002
-0.20131758 0.18866956 0.70700002
-0.19995271 0.18866956 0.70700002
-0.19886872 0.18893641 0.708
-0.19750193 0.18893641 0.708
-0.19613513 0.18893641 0.708
-0.19476834 0.18893641 0.708
-0.19394787 0.18947013 0.70999998
-0.19257721 0.18947013 0.70999998
-0.19120656 0.18947013 0.70999998
-0.18983591 0.18947013 0.70999998
-0.18846525 0.18947013 0.70999998
-0.18735811 0.18973701 0.71100003
-0.18598552 0.18973701 0.71100003
-0.18461294 0.18973701 0.71100003
-0.18324035 0.18973701 0.71100003
-0.18237935 0.19027071 0.713
-0.1810029 0.19027071 0.713
-0.17987837 0.19053757 0.71399999
-0.1785 0.19053757 0.71399999
-0.17712162 0.19053757 0.71399999
-0.17623553 0.1910713 0.71600002
-0.17485328 0.1910713 0.71600002
-0.17371333 0.19133815 0.71700001
-0.17232916 0.19133815 0.71700001
-0.17142181 0.19187187 0.71899998
-0.17003378 0.19187187 0.71899998
-0.16864575 0.19187187 0.71899998
-0.16725771 0.19187187 0.71899998
-0.16586968 0.19187187 0.71899998
-0.16471043 0.19213873 0.72000003
-0.16332047 0.19213873 0.72000003
-0.1619305 0.19213873 0.72000003
-0.16054055 0.19213873 0.72000003
-0.15959266 0.19267245 0.722
-0.15819885 0.19267245 0.722
-0.14666313 0.19400674 0.727
-0.14525965 0.19400674 0.727
-0.14405406 0.19427361 0.72799999
-0.14264865 0.19427361 0.72799999
-0.14163128 0.19480732 0.73000002
-0.14022201 0.19480732 0.73000002
-0.13881275 0.19480732 0.73000002
-0.1375917 0.19507419 0.73100001
-0.13618051 0.19507419 0.73100001
-0.13476931 0.19507419 0.73100001
-0.13372298 0.1956079 0.73299998
-0.13230792 0.1956079 0.73299998
-0.13089286 0.1956079 0.73299998
-0.12965445 0.19587477 0.73400003
-0.25169113 0.18492486 0.68800002
-0.25036293 0.18492486 0.68800002
-0.24903476 0.18492486 0.68800002
-0.24770658 0.18492486 0.68800002
-0.24637839 0.18492486 0.68800002
-0.24576254 0.18546243 0.69
-0.2444305 0.18546243 0.69
-0.24309845 0.18546243 0.69
-0.24176641 0.18546243 0.69
-0.24078281 0.1857312 0.69099998
-0.2401419 0.18626879 0.69300002
-0.23880406 0.18626879 0.69300002
-0.23746622 0.18626879 0.69300002
-0.23646912 0.18653758 0.69400001
-0.23512934 0.18653758 0.69400001
-0.23446332 0.18707514 0.69599998
-0.23311968 0.18707514 0.69599998
-0.23111004 0.18653758 0.69400001
-0.22977027 0.18653758 0.69400001
-0.2290888 0.18707514 0.69599998
-0.2280724 0.18734394 0.69700003
-0.22672684 0.18734394 0.69700003
-0.22570464 0.18761273 0.69800001
-0.22435714 0.18761273 0.69800001
-0.22300966 0.18761273 0.69800001
-0.22166216 0.18761273 0.69800001
-0.22031468 0.18761273 0.69800001
-0.21896718 0.18761273 0.69800001
-0.2176197 0.18761273 0.69800001
-0.21689188 0.18815029 0.69999999
-0.21554054 0.18815029 0.69999999
-0.21314189 0.18841907 0.70099998
-0.21178861 0.18841907 0.70099998
-0.21103571 0.18895665 0.70300001
-0.20967858 0.18895665 0.70300001
-0.20832144 0.18895665 0.70300001
-0.20725869 0.18922544 0.704
-0.20589961 0.18922544 0.704
-0.20512161 0.18976299 0.70599997
-0.20375867 0.18976299 0.70599997
-0.20268244 0.1900318 0.70700002
-0.20131758 0.1900318 0.70700002
-0.19995271 0.1900318 0.70700002
-0.19858785 0.1900318 0.70700002
-0.19750193 0.19030058 0.708
-0.19613513 0.19030058 0.708
-0.19476834 0.19030058 0.708
-0.19340155 0.19030058 0.708
-0.19257721 0.19083814 0.70999998
-0.19120656 0.19083814 0.70999998
-0.18983591 0.19083814 0.70999998
-0.18846525 0.19083814 0.70999998
-0.18709458 0.19083814 0.70999998
-0.18572393 0.19083814 0.70999998
-0.18435328 0.19083814 0.70999998
-0.18298262 0.19083814 0.70999998
-0.18186776 0.19110695 0.71100003
-0.1810029 0.1916445 0.713
-0.17987837 0.19191329 0.71399999
-0.1785 0.19191329 0.71399999
-0.17712162 0.19191329 0.71399999
-0.17574324 0.19191329 0.71399999
-0.17485328 0.19245087 0.71600002
-0.17347105 0.19245087 0.71600002
-0.17094499 0.19271965 0.71700001
-0.16956082 0.19271965 0.71700001
-0.16864575 0.19325723 0.71899998
-0.16725771 0.19325723 0.71899998
-0.16586968 0.19325723 0.71899998
-0.16471043 0.19352601 0.72000003
-0.16332047 0.19352601 0.72000003
-0.1619305 0.19352601 0.72000003
-0.16054055 0.19352601 0.72000003
-0.15959266 0.19406359 0.722
-0.15819885 0.19406359 0.722
-0.15680502 0.19406359 0.722
-0.1554112 0.19406359 0.722
-0.15401737 0.19406359 0.722
-0.15283494 0.19433236 0.72299999
-0.15143919 0.19433236 0.72299999
-0.15004343 0.19433236 0.72299999
-0.14864768 0.19433236 0.72299999
-0.14666313 0.19540751 0.727
-0.14525965 0.19540751 0.727
-0.14385618 0.19540751 0.727
-0.14264865 0.1956763 0.72799999
-0.14163128 0.19621387 0.73000002
-0.14022201 0.19621387 0.73000002
-0.13881275 0.19621387 0.73000002
-0.1375917 0.19648266 0.73100001
-0.13618051 0.19648266 0.73100001
-0.13476931 0.19648266 0.73100001
-0.13335811 0.19648266 0.73100001
-0.13230792 0.19702023 0.73299998
-0.13089286 0.19702023 0.73299998
-0.1294778 0.19702023 0.73299998
-0.12806274 0.19702023 0.73299998
-0.12574518 0.19782659 0.736
-0.12432432 0.19782659 0.736
-0.25036293 0.18625049 0.68800002
-0.24903476 0.18625049 0.68800002
-0.24770658 0.18625049 0.68800002
-0.24637839 0.18625049 0.68800002
-0.24505021 0.18625049 0.68800002
-0.24372202 0.18625049 0.68800002
-0.24309845 0.18679191 0.69
-0.24176641 0.18679191 0.69
-0.24078281 0.18706262 0.69099998
-0.23944883 0.18706262 0.69099998
-0.23811486 0.18706262 0.69099998
-0.23678088 0.18706262 0.69099998
-0.23612839 0.18760405 0.69300002
-0.23479055 0.18760405 0.69300002
-0.23378958 0.18787476 0.69400001
-0.23244981 0.18787476 0.69400001
-0.23111004 0.18787476 0.69400001
-0.22977027 0.18787476 0.69400001
-0.22843051 0.18787476 0.69400001
-0.2280724 0.18868691 0.69700003
-0.22672684 0.18868691 0.69700003
-0.22538128 0.18868691 0.69700003
-0.22435714 0.18895762 0.69800001
-0.22300966 0.18895762 0.69800001
-0.22166216 0.18895762 0.69800001
-0.22031468 0.18895762 0.69800001
-0.21896718 0.18895762 0.69800001
-0.2176197 0.18895762 0.69800001
-0.21627221 0.18895762 0.69800001
-0.21492471 0.18895762 0.69800001
-0.21357723 0.18895762 0.69800001
-0.21283783 0.18949904 0.69999999
-0.21148649 0.18949904 0.69999999
-0.21043532 0.18976974 0.70099998
-0.20967858 0.19031118 0.70300001
-0.20861776 0.19058189 0.704
-0.20725869 0.19058189 0.704
-0.20589961 0.19058189 0.704
-0.20512161 0.19112331 0.70599997
-0.20375867 0.19112331 0.70599997
-0.20239574 0.19112331 0.70599997
-0.20131758 0.19139403 0.70700002
-0.19995271 0.19139403 0.70700002
-0.19858785 0.19139403 0.70700002
-0.19722298 0.19139403 0.70700002
-0.19585811 0.19139403 0.70700002
-0.19476834 0.19166474 0.708
-0.19340155 0.19166474 0.708
-0.19203475 0.19166474 0.708
-0.19066796 0.19166474 0.708
-0.18930116 0.19166474 0.708
-0.18846525 0.19220616 0.70999998
-0.18709458 0.19220616 0.70999998
-0.18572393 0.19220616 0.70999998
-0.18435328 0.19220616 0.70999998
-0.18298262 0.19220616 0.70999998
-0.18161197 0.19220616 0.70999998
-0.1810029 0.1930183 0.713
-0.17962645 0.1930183 0.713
-0.17825 0.1930183 0.713
-0.17687355 0.1930183 0.713
-0.17574324 0.19328901 0.71399999
-0.17485328 0.19383045 0.71600002
-0.17347105 0.19383045 0.71600002
-0.1720888 0.19383045 0.71600002
-0.17070657 0.19383045 0.71600002
-0.16956082 0.19410115 0.71700001
-0.16817664 0.19410115 0.71700001
-0.16679247 0.19410115 0.71700001
-0.16586968 0.19464257 0.71899998
-0.16448165 0.19464257 0.71899998
-0.16309363 0.19464257 0.71899998
-0.1619305 0.1949133 0.72000003
-0.16054055 0.1949133 0.72000003
-0.15915059 0.1949133 0.72000003
-0.15819885 0.19545472 0.722
-0.15680502 0.19545472 0.722
-0.1554112 0.19545472 0.722
-0.15401737 0.19545472 0.722
-0.15283494 0.19572543 0.72299999
-0.15143919 0.19572543 0.72299999
-0.14864768 0.19572543 0.72299999
-0.14725193 0.19572543 0.72299999
-0.14625965 0.19626686 0.72500002
-0.14486004 0.19626686 0.72500002
-0.14385618 0.19680828 0.727
-0.14264865 0.19707899 0.72799999
-0.14124323 0.19707899 0.72799999
-0.1375917 0.19789113 0.73100001
-0.13618051 0.19789113 0.73100001
-0.13476931 0.19789113 0.73100001
-0.13335811 0.19789113 0.73100001
-0.13194691 0.19789113 0.73100001
-0.13053572 0.19789113 0.73100001
-0.1294778 0.19843256 0.73299998
-0.12806274 0.19843256 0.73299998
-0.12682047 0.19870329 0.73400003
-0.12540348 0.19870329 0.73400003
-0.24999903 0.18730347 0.68699998
-0.24903476 0.18757612 0.68800002
-0.24770658 0.18757612 0.68800002
-0.24637839 0.18757612 0.68800002
-0.24505021 0.18757612 0.68800002
-0.24372202 0.18757612 0.68800002
-0.24239384 0.18757612 0.68800002
-0.24176641 0.18812139 0.69
-0.23973747 0.18757612 0.68800002
-0.23840928 0.18757612 0.68800002
-0.23811486 0.18839402 0.69099998
-0.23678088 0.18839402 0.69099998
-0.2354469 0.18839402 0.69099998
-0.23411293 0.18839402 0.69099998
-0.23277895 0.18839402 0.69099998
-0.23244981 0.18921195 0.69400001
-0.23077704 0.18893932 0.69300002
-0.2294392 0.18893932 0.69300002
-0.22810136 0.18893932 0.69300002
-0.22774516 0.18975721 0.69599998
-0.22640154 0.18975721 0.69599998
-0.22538128 0.19002987 0.69700003
-0.22403572 0.19002987 0.69700003
-0.22300966 0.19030251 0.69800001
-0.22166216 0.19030251 0.69800001
-0.22031468 0.19030251 0.69800001
-0.21896718 0.19030251 0.69800001
-0.2176197 0.19030251 0.69800001
-0.21627221 0.19030251 0.69800001
-0.21492471 0.19030251 0.69800001
-0.21357723 0.19030251 0.69800001
-0.21222973 0.19030251 0.69800001
-0.21148649 0.19084778 0.69999999
-0.21013513 0.19084778 0.69999999
-0.20967858 0.19166571 0.70300001
-0.20832144 0.19166571 0.70300001
