# .PCD v0.7 - Point Cloud Data file format
VERSION 0.7
FIELDS x y z
SIZE 4 4 4
TYPE F F F
COUNT 1 1 1
WIDTH 341
HEIGHT 1
VIEWPOINT 0 0 0 1 0 0 0
POINTS 341
DATA ascii
0.33391216 -0.36325145 1.197
0.32929054 -0.36094511 1.197
0.33160135 -0.36094511 1.197
0.33391216 -0.36094511 1.197
0.32697973 -0.35863873 1.197
0.32929054 -0.35863873 1.197
0.33160135 -0.35863873 1.197
0.33391216 -0.35863873 1.197
0.33622298 -0.35863873 1.197
0.3223581 -0.35633239 1.197
0.32466891 -0.35633239 1.197
0.32697973 -0.35633239 1.197
0.32929054 -0.35633239 1.197
0.33160135 -0.35633239 1.197
0.33391216 -0.35633239 1.197
0.3223581 -0.35402602 1.197
0.32466891 -0.35402602 1.197
0.32697973 -0.35402602 1.197
0.32929054 -0.35402602 1.197
0.33160135 -0.35402602 1.197
0.33391216 -0.35402602 1.197
0.3223581 -0.35171965 1.197
0.32466891 -0.35171965 1.197
0.32697973 -0.35171965 1.197
0.32929054 -0.35171965 1.197
0.33160135 -0.35171965 1.197
0.33391216 -0.35171965 1.197
0.3223581 -0.34941331 1.197
0.32466891 -0.34941331 1.197
0.32697973 -0.34941331 1.197
0.32929054 -0.34941331 1.197
0.33160135 -0.34941331 1.197
0.33391216 -0.34941331 1.197
0.3223581 -0.34710693 1.197
0.32466891 -0.34710693 1.197
0.32834557 -0.34855685 1.202
0.32929054 -0.34710693 1.197
0.33160135 -0.34710693 1.197
0.33530694 -0.34855685 1.202
0.3223581 -0.34480059 1.197
0.32466891 -0.34480059 1.197
0.32834557 -0.34624085 1.202
0.33066604 -0.34624085 1.202
0.3329865 -0.34624085 1.202
0.33530694 -0.34624085 1.202
0.32138416 -0.34392485 1.202
0.3223581 -0.34249422 1.197
0.32466891 -0.34249422 1.197
0.32834557 -0.34392485 1.202
0.33066604 -0.34392485 1.202
0.3329865 -0.34392485 1.202
0.33530694 -0.34392485 1.202
0.32138416 -0.34160888 1.202
0.32370463 -0.34160888 1.202
0.3260251 -0.34160888 1.202
0.32834557 -0.34160888 1.202
0.33066604 -0.34160888 1.202
0.3329865 -0.34160888 1.202
0.33530694 -0.34160888 1.202
0.31906372 -0.33929288 1.202
0.32138416 -0.33929288 1.202
0.32370463 -0.33929288 1.202
0.3260251 -0.33929288 1.202
0.32834557 -0.33929288 1.202
0.33066604 -0.33929288 1.202
0.3329865 -0.33929288 1.202
0.33530694 -0.33929288 1.202
0.31442279 -0.33697689 1.202
0.31674325 -0.33697689 1.202
0.31906372 -0.33697689 1.202
0.32138416 -0.33697689 1.202
0.32370463 -0.33697689 1.202
0.3260251 -0.33697689 1.202
0.32834557 -0.33697689 1.202
0.33066604 -0.33697689 1.202
0.30978185 -0.33466089 1.202
0.31210232 -0.33466089 1.202
0.31442279 -0.33466089 1.202
0.31674325 -0.33466089 1.202
0.31906372 -0.33466089 1.202
0.32138416 -0.33466089 1.202
0.32370463 -0.33466089 1.202
0.32711002 -0.33577457 1.206
0.30978185 -0.33234489 1.202
0.31210232 -0.33234489 1.202
0.31442279 -0.33234489 1.202
0.31674325 -0.33234489 1.202
0.31906372 -0.33234489 1.202
0.32245365 -0.33345085 1.206
0.32478184 -0.33345085 1.206
0.32711002 -0.33345085 1.206
0.32943821 -0.33345085 1.206
0.33642277 -0.33345085 1.206
0.33875096 -0.33345085 1.206
0.34107915 -0.33345085 1.206
0.34226835 -0.33234489 1.202
0.34458882 -0.33234489 1.202
0.34690928 -0.33234489 1.202
0.34922972 -0.33234489 1.202
0.30615637 -0.33112717 1.206
0.30848455 -0.33112717 1.206
0.31081274 -0.33112717 1.206
0.31314093 -0.33112717 1.206
0.31546912 -0.33112717 1.206
0.3177973 -0.33112717 1.206
0.32012546 -0.33112717 1.206
0.32245365 -0.33112717 1.206
0.32478184 -0.33112717 1.206
0.32711002 -0.33112717 1.206
0.32943821 -0.33112717 1.206
0.3317664 -0.33112717 1.206
0.33409458 -0.33112717 1.206
0.33642277 -0.33112717 1.206
0.33875096 -0.33112717 1.206
0.34107915 -0.33112717 1.206
0.34340733 -0.33112717 1.206
0.34573552 -0.33112717 1.206
0.34806371 -0.33112717 1.206
0.35155407 -0.33222544 1.21
0.35388997 -0.33222544 1.21
0.35622588 -0.33222544 1.21
0.3632336 -0.33222544 1.21
0.30483592 -0.32989404 1.21
0.30717182 -0.32989404 1.21
0.30950773 -0.32989404 1.21
0.31081274 -0.32880345 1.206
0.31314093 -0.32880345 1.206
0.31546912 -0.32880345 1.206
0.31885135 -0.32989404 1.21
0.32118726 -0.32989404 1.21
0.32352316 -0.32989404 1.21
0.32585907 -0.32989404 1.21
0.32819501 -0.32989404 1.21
0.33053091 -0.32989404 1.21
0.33286682 -0.32989404 1.21
0.33520272 -0.32989404 1.21
0.33753863 -0.32989404 1.21
0.33875096 -0.32880345 1.206
0.34107915 -0.32880345 1.206
0.34340733 -0.32880345 1.206
0.34573552 -0.32880345 1.206
0.34806371 -0.32880345 1.206
0.35155407 -0.32989404 1.21
0.35388997 -0.32989404 1.21
0.35622588 -0.32989404 1.21
0.35856178 -0.32989404 1.21
0.36089769 -0.32989404 1.21
0.3632336 -0.32989404 1.21
0.3655695 -0.32989404 1.21
0.30483592 -0.32756263 1.21
0.30717182 -0.32756263 1.21
0.30950773 -0.32756263 1.21
0.31184363 -0.32756263 1.21
0.31417954 -0.32756263 1.21
0.31651545 -0.32756263 1.21
0.31885135 -0.32756263 1.21
0.32118726 -0.32756263 1.21
0.32352316 -0.32756263 1.21
0.33286682 -0.32756263 1.21
0.33520272 -0.32756263 1.21
0.33865443 -0.32864547 1.214
0.33987454 -0.32756263 1.21
0.34221044 -0.32756263 1.21
0.34454635 -0.32756263 1.21
0.34688225 -0.32756263 1.21
0.34921816 -0.32756263 1.21
0.35271621 -0.32864547 1.214
0.35505983 -0.32864547 1.214
0.35740346 -0.32864547 1.214
0.35974711 -0.32864547 1.214
0.30950773 -0.32523122 1.21
0.31184363 -0.32523122 1.21
0.31417954 -0.32523122 1.21
0.31651545 -0.32523122 1.21
0.31885135 -0.32523122 1.21
0.32118726 -0.32523122 1.21
0.35740346 -0.32630634 1.214
0.31542569 -0.35402602 1.197
0.31542569 -0.35402602 1.197
0.31542569 -0.35171965 1.197
0.31542569 -0.35171965 1.197
0.31311488 -0.34941331 1.197
0.31311488 -0.34941331 1.197
0.31542569 -0.34941331 1.197
0.31542569 -0.34941331 1.197
0.31311488 -0.34710693 1.197
0.31311488 -0.34710693 1.197
0.31542569 -0.34710693 1.197
0.31542569 -0.34710693 1.197
0.31080407 -0.34480059 1.197
0.31080407 -0.34480059 1.197
0.31311488 -0.34480059 1.197
0.31311488 -0.34480059 1.197
0.31542569 -0.34480059 1.197
0.31542569 -0.34480059 1.197
0.30978185 -0.34392485 1.202
0.30978185 -0.34392485 1.202
0.31210232 -0.34392485 1.202
0.31210232 -0.34392485 1.202
0.31311488 -0.34249422 1.197
0.31311488 -0.34249422 1.197
0.31542569 -0.34249422 1.197
0.31542569 -0.34249422 1.197
0.30978185 -0.34160888 1.202
0.30978185 -0.34160888 1.202
0.31210232 -0.34160888 1.202
0.31210232 -0.34160888 1.202
0.31442279 -0.34160888 1.202
0.31442279 -0.34160888 1.202
0.31542569 -0.34018788 1.197
0.31542569 -0.34018788 1.197
0.30746138 -0.33929288 1.202
0.30746138 -0.33929288 1.202
0.30978185 -0.33929288 1.202
0.30978185 -0.33929288 1.202
0.31210232 -0.33929288 1.202
0.31210232 -0.33929288 1.202
0.31442279 -0.33929288 1.202
0.31442279 -0.33929288 1.202
0.30746138 -0.33697689 1.202
0.30746138 -0.33697689 1.202
0.30978185 -0.33697689 1.202
0.30978185 -0.33697689 1.202
0.31210232 -0.33697689 1.202
0.31210232 -0.33697689 1.202
0.30615637 -0.33577457 1.206
0.30615637 -0.33577457 1.206
0.31773651 -0.35171965 1.197
0.31773651 -0.35171965 1.197
0.31773651 -0.34941331 1.197
0.31773651 -0.34941331 1.197
0.31773651 -0.34710693 1.197
0.31773651 -0.34710693 1.197
0.31773651 -0.34480059 1.197
0.31773651 -0.34480059 1.197
0.31773651 -0.34249422 1.197
0.31773651 -0.34249422 1.197
0.31773651 -0.35633239 1.197
0.31773651 -0.35633239 1.197
0.31773651 -0.35402602 1.197
0.31773651 -0.35402602 1.197
0.32004732 -0.35402602 1.197
0.32004732 -0.35402602 1.197
0.32004732 -0.35171965 1.197
0.32004732 -0.35171965 1.197
0.32004732 -0.34941331 1.197
0.32004732 -0.34941331 1.197
0.32004732 -0.34710693 1.197
0.32004732 -0.34710693 1.197
0.32004732 -0.34480059 1.197
0.32004732 -0.34480059 1.197
0.33762741 -0.33697689 1.202
0.33762741 -0.33697689 1.202
0.33530694 -0.33697689 1.202
0.33530694 -0.33697689 1.202
0.31773651 -0.34018788 1.197
0.31773651 -0.34018788 1.197
0.3329865 -0.33697689 1.202
0.3329865 -0.33697689 1.202
0.30615637 -0.33345085 1.206
0.30615637 -0.33345085 1.206
0.30848455 -0.33577457 1.206
0.30848455 -0.33577457 1.206
0.33762741 -0.33466089 1.202
0.33762741 -0.33466089 1.202
0.33994788 -0.33466089 1.202
0.33994788 -0.33466089 1.202
0.34226835 -0.33466089 1.202
0.34226835 -0.33466089 1.202
0.31674325 -0.33929288 1.202
0.31674325 -0.33929288 1.202
0.3329865 -0.33466089 1.202
0.3329865 -0.33466089 1.202
0.33066604 -0.33466089 1.202
0.33066604 -0.33466089 1.202
0.30848455 -0.33345085 1.206
0.30848455 -0.33345085 1.206
0.35181564 -0.32060406 1.219
0.35181564 -0.32060406 1.219
0.34946236 -0.32295278 1.219
0.34946236 -0.32295278 1.219
0.35181564 -0.32295278 1.219
0.35181564 -0.32295278 1.219
0.35416892 -0.32060406 1.219
0.35416892 -0.32060406 1.219
0.35505983 -0.32396725 1.214
0.35505983 -0.32396725 1.214
0.33622298 -0.35633239 1.197
0.33622298 -0.35633239 1.197
0.33622298 -0.35402602 1.197
0.33622298 -0.35402602 1.197
0.33622298 -0.35171965 1.197
0.33622298 -0.35171965 1.197
0.34334171 -0.32396725 1.214
0.34334171 -0.32396725 1.214
0.34568533 -0.32396725 1.214
0.34568533 -0.32396725 1.214
0.34802896 -0.32396725 1.214
0.34802896 -0.32396725 1.214
0.35037258 -0.32396725 1.214
0.35037258 -0.32396725 1.214
0.35271621 -0.32396725 1.214
0.35271621 -0.32396725 1.214
0.34568533 -0.32162812 1.214
0.34568533 -0.32162812 1.214
0.35416892 -0.32295278 1.219
0.35416892 -0.32295278 1.219
0.34568533 -0.32630634 1.214
0.34568533 -0.32630634 1.214
0.34802896 -0.32630634 1.214
0.34802896 -0.32630634 1.214
0.35037258 -0.32630634 1.214
0.35037258 -0.32630634 1.214
0.35271621 -0.32630634 1.214
0.35271621 -0.32630634 1.214
0.32943821 -0.33577457 1.206
0.32943821 -0.33577457 1.206
0.33066604 -0.33234489 1.202
0.33066604 -0.33234489 1.202
0.3329865 -0.33234489 1.202
0.3329865 -0.33234489 1.202
0.35505983 -0.32630634 1.214
0.35505983 -0.32630634 1.214
0.33642277 -0.33577457 1.206
0.33642277 -0.33577457 1.206
0.32929054 -0.36325145 1.197
0.32929054 -0.36325145 1.197
0.32588705 -0.35973892 1.193
0.32588705 -0.35973892 1.193
0.33160135 -0.36325145 1.197
0.33160135 -0.36325145 1.197
0.32004732 -0.35633239 1.197
0.32004732 -0.35633239 1.197
0.34334171 -0.32630634 1.214
0.34334171 -0.32630634 1.214
0.34099805 -0.32630634 1.214
0.34099805 -0.32630634 1.214
0.32358396 -0.35744026 1.193
0.32358396 -0.35744026 1.193
0.32128087 -0.35744026 1.193
0.32128087 -0.35744026 1.193
