# .PCD v0.7 - Point Cloud Data file format
VERSION 0.7
FIELDS x y z
SIZE 4 4 4
TYPE F F F
COUNT 1 1 1
WIDTH 1378
HEIGHT 1
VIEWPOINT 0 0 0 1 0 0 0
POINTS 1378
DATA ascii
-0.01276641 0.056213874 0.778
-0.011293435 0.056358378 0.77999997
-0.0097876443 0.056358378 0.77999997
-0.008281853 0.056358378 0.77999997
-0.0067847492 0.056430638 0.78100002
-0.0052770274 0.056430638 0.78100002
-0.0037693051 0.056430638 0.78100002
-0.002261583 0.056430638 0.78100002
-0.00075386104 0.056430638 0.78100002
0.00075386104 0.056430638 0.78100002
0.002261583 0.056430638 0.78100002
0.0037789575 0.056575146 0.78299999
0.0052905404 0.056575146 0.78299999
0.0068021235 0.056575146 0.78299999
0.0083137061 0.056575146 0.78299999
0.0098503865 0.056719653 0.78500003
0.011336872 0.056575146 0.78299999
0.012848455 0.056575146 0.78299999
0.014360039 0.056575146 0.78299999
0.015871622 0.056575146 0.78299999
0.017383205 0.056575146 0.78299999
0.018894788 0.056575146 0.78299999
-0.06194498 0.056006745 0.755
-0.060647685 0.056155108 0.75700003
-0.059342664 0.056303468 0.759
-0.05802992 0.056451827 0.76099998
-0.056560811 0.056451827 0.76099998
-0.055091698 0.056451827 0.76099998
-0.053693052 0.056526013 0.76200002
-0.05222201 0.056526013 0.76200002
-0.050750967 0.056526013 0.76200002
-0.049279924 0.056526013 0.76200002
-0.047808882 0.056526013 0.76200002
-0.046459459 0.056674372 0.764
-0.044984557 0.056674372 0.764
-0.043623552 0.056822736 0.76599997
-0.042199809 0.056896918 0.76700002
-0.040719114 0.056896918 0.76700002
-0.039238419 0.056896918 0.76700002
-0.037757725 0.056896918 0.76700002
-0.036371622 0.057045277 0.76899999
-0.034887064 0.057045277 0.76899999
-0.033315636 0.056896918 0.76700002
-0.031834941 0.056896918 0.76700002
-0.030512549 0.057193644 0.77100003
-0.029099422 0.057342004 0.773
-0.027607143 0.057342004 0.773
-0.026148649 0.057416186 0.77399999
-0.024718147 0.057564549 0.77600002
-0.023220077 0.057564549 0.77600002
-0.021722008 0.057564549 0.77600002
-0.020223938 0.057564549 0.77600002
-0.01872587 0.057564549 0.77600002
-0.017227801 0.057564549 0.77600002
-0.015729731 0.057564549 0.77600002
-0.01426834 0.057712909 0.778
-0.01276641 0.057712909 0.778
-0.011293435 0.057861269 0.77999997
-0.0097876443 0.057861269 0.77999997
-0.0082924711 0.057935454 0.78100002
-0.0067847492 0.057935454 0.78100002
-0.0052770274 0.057935454 0.78100002
-0.0037693051 0.057935454 0.78100002
-0.002261583 0.057935454 0.78100002
-0.00075386104 0.057935454 0.78100002
0.00075579149 0.058083814 0.78299999
0.0022673744 0.058083814 0.78299999
0.0037789575 0.058083814 0.78299999
0.0052905404 0.058083814 0.78299999
0.0068021235 0.058083814 0.78299999
0.0083137061 0.058083814 0.78299999
0.0098503865 0.058232181 0.78500003
0.011365831 0.058232181 0.78500003
0.012881274 0.058232181 0.78500003
0.014360039 0.058083814 0.78299999
0.015871622 0.058083814 0.78299999
0.017427607 0.058232181 0.78500003
0.018943051 0.058232181 0.78500003
-0.062109075 0.057613682 0.75700003
-0.060807914 0.057765897 0.759
-0.059342664 0.057765897 0.759
-0.05802992 0.057918109 0.76099998
-0.056560811 0.057918109 0.76099998
-0.053833976 0.058146436 0.764
-0.052359074 0.058146436 0.764
-0.050884169 0.058146436 0.764
-0.049409267 0.058146436 0.764
-0.047934365 0.058146436 0.764
-0.046581078 0.058298647 0.76599997
-0.045102313 0.058298647 0.76599997
-0.043680504 0.058374759 0.76700002
-0.042199809 0.058374759 0.76700002
-0.040719114 0.058374759 0.76700002
-0.039340734 0.058526974 0.76899999
-0.037856176 0.058526974 0.76899999
-0.036371622 0.058526974 0.76899999
-0.034887064 0.058526974 0.76899999
-0.033489384 0.058679193 0.77100003
-0.032000966 0.058679193 0.77100003
-0.030591698 0.058831405 0.773
-0.029137066 0.058907513 0.77399999
-0.027642857 0.058907513 0.77399999
-0.026148649 0.058907513 0.77399999
-0.024718147 0.059059732 0.77600002
-0.023220077 0.059059732 0.77600002
-0.021722008 0.059059732 0.77600002
-0.020223938 0.059059732 0.77600002
-0.01872587 0.059059732 0.77600002
-0.017227801 0.059059732 0.77600002
-0.015729731 0.059059732 0.77600002
-0.01426834 0.059211947 0.778
-0.012799228 0.059364159 0.77999997
-0.011293435 0.059364159 0.77999997
-0.0098001929 0.05944027 0.78100002
-0.0082924711 0.05944027 0.78100002
-0.0067847492 0.05944027 0.78100002
-0.0052770274 0.05944027 0.78100002
-0.0037693051 0.05944027 0.78100002
-0.0022673744 0.059592485 0.78299999
-0.00075579149 0.059592485 0.78299999
0.00075579149 0.059592485 0.78299999
0.0022673744 0.059592485 0.78299999
0.0037789575 0.059592485 0.78299999
0.0053040544 0.059744705 0.78500003
0.0068194983 0.059744705 0.78500003
0.0083349422 0.059744705 0.78500003
0.0098503865 0.059744705 0.78500003
0.011394788 0.059896916 0.787
0.012914092 0.059896916 0.787
0.014396719 0.059744705 0.78500003
0.015912162 0.059744705 0.78500003
0.017427607 0.059744705 0.78500003
0.018943051 0.059744705 0.78500003
-0.066493243 0.059072256 0.75700003
-0.065031856 0.059072256 0.75700003
-0.063570462 0.059072256 0.75700003
-0.062273167 0.059228323 0.759
-0.060807914 0.059228323 0.759
-0.059499033 0.059384391 0.76099998
-0.05802992 0.059384391 0.76099998
-0.056560811 0.059384391 0.76099998
-0.055308878 0.059618495 0.764
-0.053833976 0.059618495 0.764
-0.052359074 0.059618495 0.764
-0.051017374 0.059774563 0.76599997
-0.049538609 0.059774563 0.76599997
-0.048059843 0.059774563 0.76599997
-0.046641894 0.059852604 0.76700002
-0.045161199 0.059852604 0.76700002
-0.043794401 0.060008671 0.76899999
-0.042309847 0.060008671 0.76899999
-0.040825289 0.060008671 0.76899999
-0.039340734 0.060008671 0.76899999
-0.037954636 0.060164742 0.77100003
-0.036466219 0.060164742 0.77100003
-0.034977801 0.060164742 0.77100003
-0.033489384 0.060164742 0.77100003
-0.032083977 0.060320809 0.773
-0.030631274 0.060398843 0.77399999
-0.029212356 0.060554914 0.77600002
-0.027714286 0.060554914 0.77600002
-0.026216216 0.060554914 0.77600002
-0.024781853 0.060710981 0.778
-0.023279922 0.060710981 0.778
-0.021777993 0.060710981 0.778
-0.020276062 0.060710981 0.778
-0.018774131 0.060710981 0.778
-0.0172722 0.060710981 0.778
-0.01581081 0.060867049 0.77999997
-0.014305019 0.060867049 0.77999997
-0.012799228 0.060867049 0.77999997
-0.011293435 0.060867049 0.77999997
-0.0098001929 0.06094509 0.78100002
-0.0082924711 0.06094509 0.78100002
-0.0067847492 0.06094509 0.78100002
-0.0052770274 0.06094509 0.78100002
-0.0037693051 0.06094509 0.78100002
-0.0022673744 0.061101157 0.78299999
-0.00075579149 0.061101157 0.78299999
0.00075579149 0.061101157 0.78299999
0.0022673744 0.061101157 0.78299999
0.0037789575 0.061101157 0.78299999
0.0053040544 0.061257228 0.78500003
0.0068194983 0.061257228 0.78500003
0.0083561772 0.061413296 0.787
0.0098754829 0.061413296 0.787
0.011423745 0.061569363 0.78899997
0.012946911 0.061569363 0.78899997
0.014433398 0.061413296 0.787
0.015912162 0.061257228 0.78500003
0.017427607 0.061257228 0.78500003
0.018943051 0.061257228 0.78500003
-0.067954637 0.06053083 0.75700003
-0.06666892 0.060690753 0.759
-0.065203667 0.060690753 0.759
-0.063738421 0.060690753 0.759
-0.062273167 0.060690753 0.759
-0.060968146 0.060850672 0.76099998
-0.059499033 0.060850672 0.76099998
-0.05810618 0.06093064 0.76200002
-0.056783784 0.061090559 0.764
-0.055308878 0.061090559 0.764
-0.0539749 0.061250478 0.76599997
-0.052496139 0.061250478 0.76599997
-0.051017374 0.061250478 0.76599997
-0.049538609 0.061250478 0.76599997
-0.048122589 0.061330445 0.76700002
-0.046641894 0.061330445 0.76700002
-0.045161199 0.061330445 0.76700002
-0.043794401 0.061490364 0.76899999
-0.042309847 0.061490364 0.76899999
-0.040931467 0.061650291 0.77100003
-0.039443053 0.061650291 0.77100003
-0.038053088 0.06181021 0.773
-0.036560811 0.06181021 0.773
-0.035068534 0.06181021 0.773
-0.033576254 0.06181021 0.773
-0.03212548 0.061890174 0.77399999
-0.030710425 0.062050097 0.77600002
-0.029212356 0.062050097 0.77600002
-0.027714286 0.062050097 0.77600002
-0.026216216 0.062050097 0.77600002
-0.024781853 0.06221002 0.778
-0.023339767 0.062369939 0.77999997
-0.021833977 0.062369939 0.77999997
-0.020328185 0.062369939 0.77999997
-0.018822392 0.062369939 0.77999997
-0.017316602 0.062369939 0.77999997
-0.015831081 0.062449906 0.78100002
-0.014323359 0.062449906 0.78100002
-0.012815638 0.062449906 0.78100002
-0.011307916 0.062449906 0.78100002
-0.0098001929 0.062449906 0.78100002
-0.0082924711 0.062449906 0.78100002
-0.0068021235 0.062609829 0.78299999
-0.0052905404 0.062609829 0.78299999
-0.0037789575 0.062609829 0.78299999
-0.0022673744 0.062609829 0.78299999
-0.00075579149 0.062609829 0.78299999
0.00075579149 0.062609829 0.78299999
0.0022673744 0.062609829 0.78299999
0.0037886102 0.062769748 0.78500003
0.0053040544 0.062769748 0.78500003
0.0068194983 0.062769748 0.78500003
0.0083561772 0.062929675 0.787
0.0099005792 0.063089594 0.78899997
0.011423745 0.063089594 0.78899997
0.012946911 0.063089594 0.78899997
0.014433398 0.062929675 0.787
0.015952703 0.062929675 0.787
0.017472008 0.062929675 0.787
-0.071251929 0.062316954 0.76099998
-0.06959942 0.062153179 0.759
-0.068134174 0.062153179 0.759
-0.06666892 0.062153179 0.759
-0.065203667 0.062153179 0.759
-0.063738421 0.062153179 0.759
-0.062437259 0.062316954 0.76099998
-0.060968146 0.062316954 0.76099998
-0.059577223 0.062398847 0.76200002
-0.058258686 0.062562622 0.764
-0.056783784 0.062562622 0.764
-0.055453666 0.062726393 0.76599997
-0.0539749 0.062726393 0.76599997
-0.052496139 0.062726393 0.76599997
-0.051083978 0.06280829 0.76700002
-0.049603283 0.06280829 0.76700002
-0.048122589 0.06280829 0.76700002
-0.046763513 0.062972061 0.76899999
-0.045278959 0.062972061 0.76899999
-0.043908302 0.06313584 0.77100003
-0.042419884 0.06313584 0.77100003
-0.040931467 0.06313584 0.77100003
-0.039545368 0.063299611 0.773
-0.038053088 0.063299611 0.773
-0.036560811 0.063299611 0.773
-0.035068534 0.063299611 0.773
-0.033619691 0.063381501 0.77399999
-0.03212548 0.063381501 0.77399999
-0.030710425 0.063545279 0.77600002
-0.029287646 0.063709058 0.778
-0.027785715 0.063709058 0.778
-0.026283784 0.063709058 0.778
-0.024845559 0.063872829 0.77999997
-0.023339767 0.063872829 0.77999997
-0.021833977 0.063872829 0.77999997
-0.020354247 0.063954718 0.78100002
-0.018846525 0.063954718 0.78100002
-0.017338803 0.063954718 0.78100002
-0.015831081 0.063954718 0.78100002
-0.014323359 0.063954718 0.78100002
-0.012815638 0.063954718 0.78100002
-0.011307916 0.063954718 0.78100002
-0.0098252892 0.064118497 0.78299999
-0.0083137061 0.064118497 0.78299999
-0.0068021235 0.064118497 0.78299999
-0.0052905404 0.064118497 0.78299999
-0.0037789575 0.064118497 0.78299999
-0.0022673744 0.064118497 0.78299999
-0.00075772201 0.064282276 0.78500003
0.00075772201 0.064282276 0.78500003
0.0022731661 0.064282276 0.78500003
0.0037982624 0.064446047 0.787
0.0053175674 0.064446047 0.787
0.0068368725 0.064446047 0.787
0.0083774133 0.064609826 0.78899997
0.0099005792 0.064609826 0.78899997
0.011423745 0.064609826 0.78899997
0.012946911 0.064609826 0.78899997
0.014470077 0.064609826 0.78899997
0.015952703 0.064446047 0.787
0.017472008 0.064446047 0.787
-0.071251929 0.063783236 0.76099998
-0.069782816 0.063783236 0.76099998
-0.068313703 0.063783236 0.76099998
-0.06684459 0.063783236 0.76099998
-0.065375477 0.063783236 0.76099998
-0.063906372 0.063783236 0.76099998
-0.062437259 0.063783236 0.76099998
-0.060968146 0.063783236 0.76099998
-0.059577223 0.063867055 0.76200002
-0.058258686 0.064034685 0.764
-0.056783784 0.064034685 0.764
-0.055453666 0.064202309 0.76599997
-0.0539749 0.064202309 0.76599997
-0.052496139 0.064202309 0.76599997
-0.051083978 0.064286128 0.76700002
-0.049603283 0.064286128 0.76700002
-0.048248067 0.064453758 0.76899999
-0.046763513 0.064453758 0.76899999
-0.045396719 0.064621389 0.77100003
-0.043908302 0.064621389 0.77100003
-0.042419884 0.064621389 0.77100003
-0.041037645 0.06478902 0.773
-0.039545368 0.06478902 0.773
-0.038053088 0.06478902 0.773
-0.036560811 0.06478902 0.773
-0.035113901 0.064872831 0.77399999
-0.033619691 0.064872831 0.77399999
-0.032208495 0.065040462 0.77600002
-0.030789575 0.065208092 0.778
-0.029287646 0.065208092 0.778
-0.027785715 0.065208092 0.778
-0.026351351 0.065375723 0.77999997
-0.024877414 0.065459542 0.78100002
-0.023369692 0.065459542 0.78100002
-0.02186197 0.065459542 0.78100002
-0.020354247 0.065459542 0.78100002
-0.018846525 0.065459542 0.78100002
-0.017338803 0.065459542 0.78100002
-0.015871622 0.065627165 0.78299999
-0.014360039 0.065627165 0.78299999
-0.012848455 0.065627165 0.78299999
-0.011336872 0.065627165 0.78299999
-0.0098252892 0.065627165 0.78299999
-0.0083137061 0.065627165 0.78299999
-0.0068021235 0.065627165 0.78299999
-0.0053040544 0.065794803 0.78500003
-0.0037886102 0.065794803 0.78500003
-0.0022731661 0.065794803 0.78500003
-0.00075772201 0.065794803 0.78500003
0.00075965252 0.065962426 0.787
0.0022789575 0.065962426 0.787
0.0037982624 0.065962426 0.787
0.0053175674 0.065962426 0.787
0.0068542468 0.066130057 0.78899997
0.0083774133 0.066130057 0.78899997
0.0099005792 0.066130057 0.78899997
0.011423745 0.066130057 0.78899997
0.012946911 0.066130057 0.78899997
0.014470077 0.066130057 0.78899997
0.015993243 0.066130057 0.78899997
0.017516408 0.066130057 0.78899997
-0.07134556 0.065335259 0.76200002
-0.069782816 0.065249518 0.76099998
-0.068313703 0.065249518 0.76099998
-0.06684459 0.065249518 0.76099998
-0.065375477 0.065249518 0.76099998
-0.063906372 0.065249518 0.76099998
-0.062437259 0.065249518 0.76099998
-0.060968146 0.065249518 0.76099998
-0.059577223 0.065335259 0.76200002
-0.058258686 0.065506741 0.764
-0.056783784 0.065506741 0.764
-0.055453666 0.065678224 0.76599997
-0.0539749 0.065678224 0.76599997
-0.052564673 0.065763973 0.76700002
-0.051083978 0.065763973 0.76700002
-0.049732625 0.065935455 0.76899999
-0.048248067 0.065935455 0.76899999
-0.046885137 0.066106938 0.77100003
-0.045396719 0.066106938 0.77100003
-0.043908302 0.066106938 0.77100003
-0.042529922 0.06627842 0.773
-0.041037645 0.06627842 0.773
-0.039545368 0.06627842 0.773
-0.038102318 0.066364162 0.77399999
-0.036608107 0.066364162 0.77399999
-0.035113901 0.066364162 0.77399999
-0.033706564 0.066535644 0.77600002
-0.032208495 0.066535644 0.77600002
-0.030789575 0.066707127 0.778
-0.029287646 0.066707127 0.778
-0.027785715 0.066707127 0.778
-0.026351351 0.066878609 0.77999997
-0.024877414 0.066964358 0.78100002
-0.023369692 0.066964358 0.78100002
-0.02186197 0.066964358 0.78100002
-0.020354247 0.066964358 0.78100002
-0.018894788 0.067135841 0.78299999
-0.017383205 0.067135841 0.78299999
-0.015871622 0.067135841 0.78299999
-0.014360039 0.067135841 0.78299999
-0.012848455 0.067135841 0.78299999
-0.011365831 0.067307323 0.78500003
-0.0098503865 0.067307323 0.78500003
-0.0083349422 0.067307323 0.78500003
-0.0068368725 0.067478806 0.787
-0.0053175674 0.067478806 0.787
-0.0038079149 0.067650288 0.78899997
-0.0022789575 0.067478806 0.787
-0.00075965252 0.067478806 0.787
0.00075965252 0.067478806 0.787
0.0022789575 0.067478806 0.787
0.0037982624 0.067478806 0.787
0.0053310809 0.067650288 0.78899997
0.0068542468 0.067650288 0.78899997
0.0083880313 0.06773603 0.79000002
0.0099131279 0.06773603 0.79000002
0.011438224 0.06773603 0.79000002
0.012963321 0.06773603 0.79000002
0.014488418 0.06773603 0.79000002
0.016013514 0.06773603 0.79000002
0.017538611 0.06773603 0.79000002
-0.07134556 0.06680347 0.76200002
-0.069874518 0.06680347 0.76200002
-0.068313703 0.066715799 0.76099998
-0.06684459 0.066715799 0.76099998
-0.065375477 0.066715799 0.76099998
-0.063906372 0.066715799 0.76099998
-0.062519304 0.06680347 0.76200002
-0.061048266 0.06680347 0.76200002
-0.059577223 0.06680347 0.76200002
-0.058258686 0.066978805 0.764
-0.056932431 0.067154139 0.76599997
-0.055453666 0.067154139 0.76599997
-0.054045368 0.06724181 0.76700002
-0.052564673 0.06724181 0.76700002
-0.05121718 0.067417145 0.76899999
-0.049732625 0.067417145 0.76899999
-0.048248067 0.067417145 0.76899999
-0.046885137 0.067592487 0.77100003
-0.045396719 0.067592487 0.77100003
-0.043908302 0.067592487 0.77100003
-0.042529922 0.067767821 0.773
-0.041037645 0.067767821 0.773
-0.039596524 0.067855492 0.77399999
-0.038102318 0.067855492 0.77399999
-0.036608107 0.067855492 0.77399999
-0.035204634 0.068030834 0.77600002
-0.033793435 0.068206169 0.778
-0.032291505 0.068206169 0.778
-0.030789575 0.068206169 0.778
-0.029287646 0.068206169 0.778
-0.027857142 0.068381503 0.77999997
-0.026351351 0.068381503 0.77999997
-0.024877414 0.068469174 0.78100002
-0.023369692 0.068469174 0.78100002
-0.02186197 0.068469174 0.78100002
-0.020354247 0.068469174 0.78100002
-0.018894788 0.068644509 0.78299999
-0.017383205 0.068644509 0.78299999
-0.015871622 0.068644509 0.78299999
-0.014360039 0.068644509 0.78299999
-0.012881274 0.068819851 0.78500003
-0.011423745 0.06917052 0.78899997
-0.0098754829 0.068995185 0.787
-0.0083561772 0.068995185 0.787
-0.0068542468 0.06917052 0.78899997
-0.0053310809 0.06917052 0.78899997
-0.0038079149 0.06917052 0.78899997
-0.0022847489 0.06917052 0.78899997
-0.00076158298 0.06917052 0.78899997
0.00076158298 0.06917052 0.78899997
0.0022847489 0.06917052 0.78899997
0.0038079149 0.06917052 0.78899997
0.0053378381 0.069258191 0.79000002
0.0068629347 0.069258191 0.79000002
0.0083880313 0.069258191 0.79000002
0.0099131279 0.069258191 0.79000002
0.011438224 0.069258191 0.79000002
0.012963321 0.069258191 0.79000002
0.014488418 0.069258191 0.79000002
0.016013514 0.069258191 0.79000002
0.017583011 0.069433525 0.792
-0.071532816 0.068450868 0.764
-0.069874518 0.068271682 0.76200002
-0.068313703 0.068182081 0.76099998
-0.06684459 0.068182081 0.76099998
-0.065375477 0.068182081 0.76099998
-0.063990347 0.068271682 0.76200002
-0.062519304 0.068271682 0.76200002
-0.061048266 0.068271682 0.76200002
-0.058258686 0.068450868 0.764
-0.056932431 0.068630055 0.76599997
-0.055453666 0.068630055 0.76599997
-0.054045368 0.068719655 0.76700002
-0.052701738 0.068898842 0.76899999
-0.05121718 0.068898842 0.76899999
-0.049861971 0.069078036 0.77100003
-0.048373554 0.069078036 0.77100003
-0.046885137 0.069078036 0.77100003
-0.045396719 0.069078036 0.77100003
-0.044022202 0.069257222 0.773
-0.042529922 0.069257222 0.773
-0.041090734 0.069346823 0.77399999
-0.039596524 0.069346823 0.77399999
-0.038200773 0.069526017 0.77600002
-0.036702704 0.069526017 0.77600002
-0.035204634 0.069526017 0.77600002
-0.033793435 0.069705203 0.778
-0.032291505 0.069705203 0.778
-0.030789575 0.069705203 0.778
-0.029362934 0.06988439 0.77999997
-0.027857142 0.06988439 0.77999997
-0.026351351 0.06988439 0.77999997
-0.024877414 0.06997399 0.78100002
-0.023429537 0.070153177 0.78299999
-0.021917954 0.070153177 0.78299999
-0.020406371 0.070153177 0.78299999
-0.018894788 0.070153177 0.78299999
-0.017383205 0.070153177 0.78299999
-0.015871622 0.070153177 0.78299999
-0.014396719 0.070332371 0.78500003
-0.012914092 0.070511557 0.787
-0.011423745 0.070690751 0.78899997
-0.0099005792 0.070690751 0.78899997
-0.0083774133 0.070690751 0.78899997
-0.0068542468 0.070690751 0.78899997
-0.0053310809 0.070690751 0.78899997
-0.0038127415 0.070780352 0.79000002
-0.0022876449 0.070780352 0.79000002
-0.0007625483 0.070780352 0.79000002
0.0007625483 0.070780352 0.79000002
0.0022876449 0.070780352 0.79000002
0.0038127415 0.070780352 0.79000002
0.0053513511 0.070959538 0.792
0.006880309 0.070959538 0.792
0.0083880313 0.070780352 0.79000002
0.0099131279 0.070780352 0.79000002
0.011467181 0.070959538 0.792
0.012996139 0.070959538 0.792
0.014488418 0.070780352 0.79000002
0.016013514 0.070780352 0.79000002
0.017583011 0.070959538 0.792
-0.069874518 0.069739886 0.76200002
-0.068403475 0.069739886 0.76200002
-0.066932432 0.069739886 0.76200002
-0.06546139 0.069739886 0.76200002
-0.063990347 0.069739886 0.76200002
-0.062519304 0.069739886 0.76200002
-0.059889961 0.07010597 0.76599997
-0.058411196 0.07010597 0.76599997
-0.057006758 0.0701975 0.76700002
-0.055526063 0.0701975 0.76700002
-0.054186292 0.070380539 0.76899999
-0.052838806 0.070563585 0.77100003
-0.051350389 0.070563585 0.77100003
-0.049861971 0.070563585 0.77100003
-0.048373554 0.070563585 0.77100003
-0.047006756 0.07074663 0.773
-0.045514479 0.07074663 0.773
-0.044022202 0.07074663 0.773
-0.042584941 0.070838146 0.77399999
-0.041090734 0.070838146 0.77399999
-0.039596524 0.070838146 0.77399999
-0.038200773 0.071021199 0.77600002
-0.036702704 0.071021199 0.77600002
-0.035295367 0.071204238 0.778
-0.033793435 0.071204238 0.778
-0.032291505 0.071204238 0.778
-0.030789575 0.071204238 0.778
-0.029362934 0.071387284 0.77999997
-0.027892858 0.071478806 0.78100002
-0.026385136 0.071478806 0.78100002
-0.02494112 0.071661852 0.78299999
-0.023429537 0.071661852 0.78299999
-0.021917954 0.071661852 0.78299999
-0.020406371 0.071661852 0.78299999
-0.018943051 0.071844898 0.78500003
-0.017427607 0.071844898 0.78500003
-0.015912162 0.071844898 0.78500003
-0.014433398 0.072027937 0.787
-0.012946911 0.072210982 0.78899997
-0.011423745 0.072210982 0.78899997
-0.0099005792 0.072210982 0.78899997
-0.0083774133 0.072210982 0.78899997
-0.0068629347 0.072302505 0.79000002
-0.0053378381 0.072302505 0.79000002
-0.0038127415 0.072302505 0.79000002
-0.0022876449 0.072302505 0.79000002
-0.0007625483 0.072302505 0.79000002
0.0007625483 0.072302505 0.79000002
0.0022876449 0.072302505 0.79000002
0.0038223937 0.072485551 0.792
0.0053513511 0.072485551 0.792
0.0068976837 0.072668597 0.79400003
0.0084305024 0.072668597 0.79400003
0.0099633206 0.072668597 0.79400003
0.01149614 0.072668597 0.79400003
0.013028958 0.072668597 0.79400003
0.014525097 0.072485551 0.792
0.016054055 0.072485551 0.792
-0.070057914 0.071394987 0.764
-0.068583012 0.071394987 0.764
-0.066932432 0.071208097 0.76200002
-0.06546139 0.071208097 0.76200002
-0.061368722 0.071581885 0.76599997
-0.059889961 0.071581885 0.76599997
-0.058487453 0.071675338 0.76700002
-0.057155404 0.071862236 0.76899999
-0.05567085 0.071862236 0.76899999
-0.054186292 0.071862236 0.76899999
-0.052838806 0.072049133 0.77100003
-0.051350389 0.072049133 0.77100003
-0.049861971 0.072049133 0.77100003
-0.048373554 0.072049133 0.77100003
-0.047006756 0.072236031 0.773
-0.045514479 0.072236031 0.773
-0.044079151 0.072329476 0.77399999
-0.042584941 0.072329476 0.77399999
-0.041090734 0.072329476 0.77399999
-0.039698843 0.072516382 0.77600002
-0.038200773 0.072516382 0.77600002
-0.036797296 0.072703272 0.778
-0.035295367 0.072703272 0.778
-0.033793435 0.072703272 0.778
-0.032374516 0.07289017 0.77999997
-0.030868724 0.07289017 0.77999997
-0.029362934 0.07289017 0.77999997
-0.027892858 0.072983623 0.78100002
-0.026385136 0.072983623 0.78100002
-0.02494112 0.07317052 0.78299999
-0.023429537 0.07317052 0.78299999
-0.021917954 0.07317052 0.78299999
-0.020406371 0.07317052 0.78299999
-0.018991312 0.073544316 0.787
-0.017472008 0.073544316 0.787
-0.015952703 0.073544316 0.787
-0.014433398 0.073544316 0.787
-0.012946911 0.073731214 0.78899997
-0.011423745 0.073731214 0.78899997
-0.0099005792 0.073731214 0.78899997
-0.0083774133 0.073731214 0.78899997
-0.0068629347 0.073824666 0.79000002
-0.0053378381 0.073824666 0.79000002
-0.0038223937 0.074011557 0.792
-0.0022934363 0.074011557 0.792
-0.00076447875 0.074011557 0.792
0.00076447875 0.074011557 0.792
0.002299228 0.074198462 0.79400003
0.0038320464 0.074198462 0.79400003
0.0053648651 0.074198462 0.79400003
0.0068976837 0.074198462 0.79400003
0.0084305024 0.074198462 0.79400003
0.0099633206 0.074198462 0.79400003
0.01149614 0.074198462 0.79400003
0.013028958 0.074198462 0.79400003
-0.07024131 0.073057801 0.76599997
-0.068762548 0.073057801 0.76599997
-0.067283779 0.073057801 0.76599997
-0.065805018 0.073057801 0.76599997
-0.064326249 0.073057801 0.76599997
-0.062847488 0.073057801 0.76599997
-0.061368722 0.073057801 0.76599997
-0.059968147 0.073153183 0.76700002
-0.058639962 0.073343933 0.76899999
-0.057155404 0.073343933 0.76899999
-0.055815641 0.073534682 0.77100003
-0.054327223 0.073534682 0.77100003
-0.052838806 0.073534682 0.77100003
-0.05148359 0.073725432 0.773
-0.049991313 0.073725432 0.773
-0.048499037 0.073725432 0.773
-0.047006756 0.073725432 0.773
-0.045573357 0.073820807 0.77399999
-0.044079151 0.073820807 0.77399999
-0.042694982 0.074011564 0.77600002
-0.041196913 0.074011564 0.77600002
-0.039698843 0.074011564 0.77600002
-0.038299229 0.074202314 0.778
-0.036797296 0.074202314 0.778
-0.035295367 0.074202314 0.778
-0.033880308 0.074393064 0.77999997
-0.032374516 0.074393064 0.77999997
-0.030868724 0.074393064 0.77999997
-0.02940058 0.074488439 0.78100002
-0.027892858 0.074488439 0.78100002
-0.026385136 0.074488439 0.78100002
-0.02494112 0.074679188 0.78299999
-0.023489382 0.074869946 0.78500003
-0.022029923 0.075060695 0.787
-0.02056274 0.075251445 0.78899997
-0.018991312 0.075060695 0.787
-0.017472008 0.075060695 0.787
-0.015993243 0.075251445 0.78899997
-0.014470077 0.075251445 0.78899997
-0.012946911 0.075251445 0.78899997
-0.011438224 0.07534682 0.79000002
-0.0099131279 0.07534682 0.79000002
-0.0083880313 0.07534682 0.79000002
-0.006880309 0.07553757 0.792
-0.0053513511 0.07553757 0.792
-0.0038223937 0.07553757 0.792
-0.0022934363 0.07553757 0.792
-0.00076640927 0.075728327 0.79400003
0.00076640927 0.075728327 0.79400003
0.002299228 0.075728327 0.79400003
0.0038320464 0.075728327 0.79400003
0.0053648651 0.075728327 0.79400003
0.0068976837 0.075728327 0.79400003
0.0084517375 0.075919077 0.796
0.0099884169 0.075919077 0.796
0.011525096 0.075919077 0.796
0.013061776 0.075919077 0.796
-0.07024131 0.074533716 0.76599997
-0.068762548 0.074533716 0.76599997
-0.067283779 0.074533716 0.76599997
-0.065805018 0.074533716 0.76599997
-0.064410232 0.07463102 0.76700002
-0.062929541 0.07463102 0.76700002
-0.061448842 0.07463102 0.76700002
-0.059968147 0.07463102 0.76700002
-0.058639962 0.074825622 0.76899999
-0.057155404 0.074825622 0.76899999
-0.055815641 0.075020231 0.77100003
-0.054327223 0.075020231 0.77100003
-0.052838806 0.075020231 0.77100003
-0.05148359 0.075214833 0.773
-0.049991313 0.075214833 0.773
-0.048499037 0.075214833 0.773
-0.047067568 0.075312138 0.77399999
-0.045691121 0.075506747 0.77600002
-0.044193052 0.075506747 0.77600002
-0.04280502 0.075701348 0.778
-0.041303087 0.075701348 0.778
-0.039801158 0.075701348 0.778
-0.038397681 0.07589595 0.77999997
-0.036891889 0.07589595 0.77999997
-0.0353861 0.07589595 0.77999997
-0.033880308 0.07589595 0.77999997
-0.032374516 0.07589595 0.77999997
-0.030908301 0.075993255 0.78100002
-0.029475868 0.076187864 0.78299999
-0.027964285 0.076187864 0.78299999
-0.026520271 0.076382466 0.78500003
-0.025068533 0.076577075 0.787
-0.023549227 0.076577075 0.787
-0.022085907 0.076771677 0.78899997
-0.02056274 0.076771677 0.78899997
-0.019039575 0.076771677 0.78899997
-0.017516408 0.076771677 0.78899997
-0.015993243 0.076771677 0.78899997
-0.014470077 0.076771677 0.78899997
-0.012963321 0.076868981 0.79000002
-0.011438224 0.076868981 0.79000002
-0.0099131279 0.076868981 0.79000002
-0.0083880313 0.076868981 0.79000002
-0.006880309 0.077063583 0.792
-0.0053648651 0.077258192 0.79400003
-0.0038320464 0.077258192 0.79400003
-0.002299228 0.077258192 0.79400003
-0.00076640927 0.077258192 0.79400003
0.00076833979 0.077452794 0.796
0.0023050194 0.077452794 0.796
0.0038416989 0.077452794 0.796
0.0053783786 0.077452794 0.796
0.006915058 0.077452794 0.796
0.0084517375 0.077452794 0.796
0.0099884169 0.077452794 0.796
0.011525096 0.077452794 0.796
0.013061776 0.077452794 0.796
-0.07024131 0.076009631 0.76599997
-0.068762548 0.076009631 0.76599997
-0.067371622 0.076108865 0.76700002
-0.065890931 0.076108865 0.76700002
-0.064410232 0.076108865 0.76700002
-0.062929541 0.076108865 0.76700002
-0.061609074 0.076307319 0.76899999
-0.060280889 0.07650578 0.77100003
-0.058792472 0.07650578 0.77100003
-0.057304054 0.07650578 0.77100003
-0.055815641 0.07650578 0.77100003
-0.054468147 0.076704241 0.773
-0.052975871 0.076704241 0.773
-0.05148359 0.076704241 0.773
-0.050055984 0.076803468 0.77399999
-0.048561774 0.076803468 0.77399999
-0.047189191 0.077001929 0.77600002
-0.045808882 0.077200383 0.778
-0.044306949 0.077200383 0.778
-0.04280502 0.077200383 0.778
-0.041409265 0.077398844 0.77999997
-0.039903473 0.077398844 0.77999997
-0.038397681 0.077398844 0.77999997
-0.036891889 0.077398844 0.77999997
-0.035431467 0.077498078 0.78100002
-0.033923745 0.077498078 0.78100002
-0.032416023 0.077498078 0.78100002
-0.030908301 0.077498078 0.78100002
-0.02955116 0.077894993 0.78500003
-0.028035715 0.077894993 0.78500003
-0.026520271 0.077894993 0.78500003
-0.025068533 0.078093447 0.787
-0.023609072 0.078291908 0.78899997
-0.022085907 0.078291908 0.78899997
-0.02056274 0.078291908 0.78899997
-0.019039575 0.078291908 0.78899997
-0.017516408 0.078291908 0.78899997
-0.015993243 0.078291908 0.78899997
-0.014470077 0.078291908 0.78899997
-0.012963321 0.078391142 0.79000002
-0.011438224 0.078391142 0.79000002
-0.0099131279 0.078391142 0.79000002
-0.0084092664 0.078589596 0.792
-0.0068976837 0.078788057 0.79400003
-0.0053648651 0.078788057 0.79400003
-0.0038320464 0.078788057 0.79400003
-0.002299228 0.078788057 0.79400003
-0.00076833979 0.078986511 0.796
0.00076833979 0.078986511 0.796
0.0023050194 0.078986511 0.796
0.0038416989 0.078986511 0.796
0.0053783786 0.078986511 0.796
0.006915058 0.078986511 0.796
0.0084517375 0.078986511 0.796
0.010013513 0.079184972 0.79799998
0.011554054 0.079184972 0.79799998
0.013094594 0.079184972 0.79799998
-0.070333011 0.07758671 0.76700002
-0.06885232 0.07758671 0.76700002
-0.067371622 0.07758671 0.76700002
-0.065890931 0.07758671 0.76700002
-0.064410232 0.07758671 0.76700002
-0.062929541 0.07758671 0.76700002
-0.061769307 0.077991329 0.77100003
-0.060437258 0.078193642 0.773
-0.058944982 0.078193642 0.773
-0.057452701 0.078193642 0.773
-0.055960424 0.078193642 0.773
-0.054468147 0.078193642 0.773
-0.053044401 0.078294799 0.77399999
-0.051550191 0.078294799 0.77399999
-0.050055984 0.078294799 0.77399999
-0.048561774 0.078294799 0.77399999
-0.047310811 0.078699425 0.778
-0.045808882 0.078699425 0.778
-0.04442085 0.07890173 0.77999997
-0.042915057 0.07890173 0.77999997
-0.041409265 0.07890173 0.77999997
-0.039903473 0.07890173 0.77999997
-0.038446911 0.079002894 0.78100002
-0.036939189 0.079002894 0.78100002
-0.035431467 0.079002894 0.78100002
-0.033923745 0.079002894 0.78100002
-0.032499034 0.0792052 0.78299999
-0.030987451 0.0792052 0.78299999
-0.02955116 0.079407521 0.78500003
-0.028107142 0.079609826 0.787
-0.026587838 0.079609826 0.787
-0.025068533 0.079609826 0.787
-0.023609072 0.079812139 0.78899997
-0.022113901 0.079913296 0.79000002
-0.020588804 0.079913296 0.79000002
-0.019063707 0.079913296 0.79000002
-0.017516408 0.079812139 0.78899997
-0.015993243 0.079812139 0.78899997
-0.014488418 0.079913296 0.79000002
-0.012963321 0.079913296 0.79000002
-0.011467181 0.080115609 0.792
-0.0099382242 0.080115609 0.792
-0.0084092664 0.080115609 0.792
-0.0068976837 0.080317922 0.79400003
-0.0053648651 0.080317922 0.79400003
-0.0038416989 0.080520235 0.796
-0.0023050194 0.080520235 0.796
-0.00076833979 0.080520235 0.796
0.00076833979 0.080520235 0.796
0.0023050194 0.080520235 0.796
0.0038416989 0.080520235 0.796
0.0053918916 0.080722541 0.79799998
0.0069324323 0.080722541 0.79799998
0.0084729725 0.080722541 0.79799998
0.010013513 0.080722541 0.79799998
0.011554054 0.080722541 0.79799998
0.013094594 0.080722541 0.79799998
0.014635134 0.080722541 0.79799998
-0.070516407 0.079270713 0.76899999
-0.06903185 0.079270713 0.76899999
-0.067547299 0.079270713 0.76899999
-0.066062741 0.079270713 0.76899999
-0.064578183 0.079270713 0.76899999
-0.063093632 0.079270713 0.76899999
-0.061769307 0.079476878 0.77100003
-0.060437258 0.079683043 0.773
-0.058944982 0.079683043 0.773
-0.057527028 0.079786129 0.77399999
-0.056032818 0.079786129 0.77399999
-0.054538608 0.079786129 0.77399999
-0.053044401 0.079786129 0.77399999
-0.051550191 0.079786129 0.77399999
-0.050314672 0.080198459 0.778
-0.04881274 0.080198459 0.778
-0.04743243 0.080404624 0.77999997
-0.045926638 0.080404624 0.77999997
-0.04442085 0.080404624 0.77999997
-0.042915057 0.080404624 0.77999997
-0.041409265 0.080404624 0.77999997
-0.039903473 0.080404624 0.77999997
-0.038446911 0.080507711 0.78100002
-0.036939189 0.080507711 0.78100002
-0.035431467 0.080507711 0.78100002
-0.034010619 0.080713876 0.78299999
-0.032582048 0.080920041 0.78500003
-0.031066604 0.080920041 0.78500003
-0.029626448 0.081126206 0.787
-0.028107142 0.081126206 0.787
-0.026587838 0.081126206 0.787
-0.025068533 0.081126206 0.787
-0.023609072 0.081332371 0.78899997
-0.022113901 0.081435457 0.79000002
-0.020588804 0.081435457 0.79000002
-0.019063707 0.081435457 0.79000002
-0.017538611 0.081435457 0.79000002
-0.016013514 0.081435457 0.79000002
-0.014488418 0.081435457 0.79000002
-0.012996139 0.081641614 0.792
-0.011467181 0.081641614 0.792
-0.0099382242 0.081641614 0.792
-0.0084305024 0.081847787 0.79400003
-0.0068976837 0.081847787 0.79400003
-0.0053783786 0.082053952 0.796
-0.0038416989 0.082053952 0.796
-0.0023050194 0.082053952 0.796
-0.00076833979 0.082053952 0.796
0.00076833979 0.082053952 0.796
0.0023050194 0.082053952 0.796
0.0038513513 0.082260117 0.79799998
0.0053918916 0.082260117 0.79799998
0.0069324323 0.082260117 0.79799998
0.0084729725 0.082260117 0.79799998
0.010013513 0.082260117 0.79799998
0.011554054 0.082260117 0.79799998
0.013094594 0.082260117 0.79799998
0.014671815 0.082466282 0.80000001
-0.069211394 0.080962427 0.77100003
-0.064746141 0.080962427 0.77100003
-0.063257724 0.080962427 0.77100003
-0.061929535 0.081172444 0.773
-0.060437258 0.081172444 0.773
-0.058944982 0.081172444 0.773
-0.057527028 0.081277452 0.77399999
-0.056032818 0.081277452 0.77399999
-0.054679539 0.081487477 0.77600002
-0.053181469 0.081487477 0.77600002
-0.051816601 0.081697494 0.778
-0.050314672 0.081697494 0.778
-0.048938222 0.081907511 0.77999997
-0.04743243 0.081907511 0.77999997
-0.045926638 0.081907511 0.77999997
-0.04442085 0.081907511 0.77999997
-0.04297008 0.082012527 0.78100002
-0.041462354 0.082012527 0.78100002
-0.039954633 0.082012527 0.78100002
-0.038446911 0.082012527 0.78100002
-0.036939189 0.082012527 0.78100002
-0.0355222 0.082222544 0.78299999
-0.034010619 0.082222544 0.78299999
-0.032582048 0.082432568 0.78500003
-0.031145753 0.082642585 0.787
-0.029626448 0.082642585 0.787
-0.028107142 0.082642585 0.787
-0.026587838 0.082642585 0.787
-0.025068533 0.082642585 0.787
-0.023638997 0.08295761 0.79000002
-0.022113901 0.08295761 0.79000002
-0.020588804 0.08295761 0.79000002
-0.019063707 0.08295761 0.79000002
-0.017538611 0.08295761 0.79000002
-0.016013514 0.08295761 0.79000002
-0.014525097 0.083167627 0.792
-0.012996139 0.083167627 0.792
-0.01149614 0.083377652 0.79400003
-0.0099633206 0.083377652 0.79400003
-0.0084305024 0.083377652 0.79400003
-0.006915058 0.083587669 0.796
-0.0053783786 0.083587669 0.796
-0.0038416989 0.083587669 0.796
-0.0023050194 0.083587669 0.796
-0.00076833979 0.083587669 0.796
0.00077027024 0.083797686 0.79799998
0.0023108108 0.083797686 0.79799998
0.0038513513 0.083797686 0.79799998
0.0053918916 0.083797686 0.79799998
0.0069324323 0.083797686 0.79799998
0.0084729725 0.083797686 0.79799998
0.010013513 0.083797686 0.79799998
0.011554054 0.083797686 0.79799998
0.013127414 0.08400771 0.80000001
0.014671815 0.08400771 0.80000001
-0.067722976 0.082447983 0.77100003
-0.061929535 0.082661852 0.773
-0.060515445 0.082768783 0.77399999
-0.059021235 0.082768783 0.77399999
-0.057527028 0.082768783 0.77399999
-0.056177609 0.082982659 0.77600002
-0.054679539 0.082982659 0.77600002
-0.053318534 0.083196528 0.778
-0.051816601 0.083196528 0.778
-0.050444014 0.083410405 0.77999997
-0.048938222 0.083410405 0.77999997
-0.04743243 0.083410405 0.77999997
-0.045985524 0.083517343 0.78100002
-0.044477802 0.083517343 0.78100002
-0.04297008 0.083517343 0.78100002
-0.041462354 0.083517343 0.78100002
-0.040056948 0.083731212 0.78299999
-0.038545366 0.083731212 0.78299999
-0.037033785 0.083731212 0.78299999
-0.035612937 0.083945088 0.78500003
-0.034097493 0.083945088 0.78500003
-0.032665059 0.084158957 0.787
-0.031145753 0.084158957 0.787
-0.029626448 0.084158957 0.787
-0.028107142 0.084158957 0.787
-0.026655404 0.084372833 0.78899997
-0.025164094 0.084479772 0.79000002
-0.023638997 0.084479772 0.79000002
-0.022113901 0.084479772 0.79000002
-0.020588804 0.084479772 0.79000002
-0.019063707 0.084479772 0.79000002
-0.017583011 0.08469364 0.792
-0.016054055 0.08469364 0.792
-0.014525097 0.08469364 0.792
-0.013028958 0.084907517 0.79400003
-0.01149614 0.084907517 0.79400003
-0.0099633206 0.084907517 0.79400003
-0.0084517375 0.085121386 0.796
-0.006915058 0.085121386 0.796
-0.0053783786 0.085121386 0.796
-0.0038416989 0.085121386 0.796
-0.0023050194 0.085121386 0.796
-0.00077027024 0.085335255 0.79799998
0.00077027024 0.085335255 0.79799998
0.0023108108 0.085335255 0.79799998
0.0038513513 0.085335255 0.79799998
0.0053918916 0.085335255 0.79799998
0.0069324323 0.085335255 0.79799998
0.0084942086 0.085549131 0.80000001
0.010038611 0.085549131 0.80000001
0.011583012 0.085549131 0.80000001
0.013160232 0.085763007 0.80199999
0.014708494 0.085763007 0.80199999
-0.060515445 0.084260114 0.77399999
-0.059021235 0.084260114 0.77399999
-0.057675678 0.084477842 0.77600002
-0.056322392 0.08469557 0.778
-0.054820463 0.08469557 0.778
-0.053318534 0.08469557 0.778
-0.051949807 0.084913291 0.77999997
-0.050444014 0.084913291 0.77999997
-0.048938222 0.084913291 0.77999997
-0.04743243 0.084913291 0.77999997
-0.045985524 0.085022159 0.78100002
-0.044477802 0.085022159 0.78100002
-0.04297008 0.085022159 0.78100002
-0.041462354 0.085022159 0.78100002
-0.040056948 0.085239887 0.78299999
-0.038545366 0.085239887 0.78299999
-0.037033785 0.085239887 0.78299999
-0.035612937 0.085457616 0.78500003
-0.034097493 0.085457616 0.78500003
-0.032665059 0.085675336 0.787
-0.031145753 0.085675336 0.787
-0.029701736 0.085893057 0.78899997
-0.028178571 0.085893057 0.78899997
-0.026655404 0.085893057 0.78899997
-0.025164094 0.086001933 0.79000002
-0.023638997 0.086001933 0.79000002
-0.022113901 0.086001933 0.79000002
-0.020588804 0.086001933 0.79000002
-0.019063707 0.086001933 0.79000002
-0.017583011 0.086219653 0.792
-0.016094595 0.086437382 0.79400003
-0.014561777 0.086437382 0.79400003
-0.013028958 0.086437382 0.79400003
-0.011525096 0.086655103 0.796
-0.0099884169 0.086655103 0.796
-0.0084517375 0.086655103 0.796
-0.006915058 0.086655103 0.796
-0.0053918916 0.086872831 0.79799998
-0.0038513513 0.086872831 0.79799998
-0.0023108108 0.086872831 0.79799998
-0.00077027024 0.086872831 0.79799998
0.00077027024 0.086872831 0.79799998
0.0023108108 0.086872831 0.79799998
0.003861004 0.087090559 0.80000001
0.0054054055 0.087090559 0.80000001
0.0069498071 0.087090559 0.80000001
0.0084942086 0.087090559 0.80000001
0.010063706 0.08730828 0.80199999
0.011611969 0.08730828 0.80199999
0.013160232 0.08730828 0.80199999
0.014708494 0.08730828 0.80199999
0.016277026 0.087417148 0.80299997
-0.062009651 0.085751444 0.77399999
-0.060515445 0.085751444 0.77399999
-0.059021235 0.085751444 0.77399999
-0.057675678 0.085973024 0.77600002
-0.056322392 0.086194605 0.778
-0.054961387 0.086416185 0.77999997
-0.053455595 0.086416185 0.77999997
-0.051949807 0.086416185 0.77999997
-0.050444014 0.086416185 0.77999997
-0.048938222 0.086416185 0.77999997
-0.047493245 0.086526975 0.78100002
-0.045985524 0.086526975 0.78100002
-0.044477802 0.086526975 0.78100002
-0.043080114 0.086748555 0.78299999
-0.041568533 0.086748555 0.78299999
-0.040056948 0.086748555 0.78299999
-0.038545366 0.086748555 0.78299999
-0.037222974 0.087191716 0.787
-0.035703667 0.087191716 0.787
-0.034184363 0.087191716 0.787
-0.03274807 0.087413289 0.78899997
-0.031224903 0.087413289 0.78899997
-0.029701736 0.087413289 0.78899997
-0.028178571 0.087413289 0.78899997
-0.026655404 0.087413289 0.78899997
-0.0252278 0.087745667 0.792
-0.023638997 0.087524086 0.79000002
-0.022113901 0.087524086 0.79000002
-0.020640926 0.087745667 0.792
-0.019111969 0.087745667 0.792
-0.017583011 0.087745667 0.792
-0.016094595 0.087967247 0.79400003
-0.014561777 0.087967247 0.79400003
-0.013028958 0.087967247 0.79400003
-0.011525096 0.088188827 0.796
-0.0099884169 0.088188827 0.796
-0.0084517375 0.088188827 0.796
-0.006915058 0.088188827 0.796
-0.0053918916 0.0884104 0.79799998
-0.0038513513 0.0884104 0.79799998
-0.0023108108 0.0884104 0.79799998
-0.00077027024 0.0884104 0.79799998
0.00077220076 0.088631988 0.80000001
0.0023166023 0.088631988 0.80000001
0.003861004 0.088631988 0.80000001
0.0054054055 0.088631988 0.80000001
0.0069671813 0.08885356 0.80199999
0.0085154437 0.08885356 0.80199999
0.010063706 0.08885356 0.80199999
0.011611969 0.08885356 0.80199999
0.01317664 0.088964351 0.80299997
0.014726833 0.088964351 0.80299997
0.016277026 0.088964351 0.80299997
-0.062009651 0.087242775 0.77399999
-0.060671818 0.087468214 0.77600002
-0.059173748 0.087468214 0.77600002
-0.057824325 0.087693639 0.778
-0.056467179 0.087919071 0.77999997
-0.054961387 0.087919071 0.77999997
-0.053455595 0.087919071 0.77999997
-0.051949807 0.087919071 0.77999997
-0.050444014 0.087919071 0.77999997
-0.048938222 0.087919071 0.77999997
-0.047493245 0.088031791 0.78100002
-0.045985524 0.088031791 0.78100002
-0.044477802 0.088031791 0.78100002
-0.043080114 0.088257223 0.78299999
-0.041568533 0.088257223 0.78299999
-0.040159266 0.088482663 0.78500003
-0.038643822 0.088482663 0.78500003
-0.037317567 0.08893352 0.78899997
-0.0357944 0.08893352 0.78899997
-0.034271233 0.08893352 0.78899997
-0.03274807 0.08893352 0.78899997
-0.031224903 0.08893352 0.78899997
-0.029701736 0.08893352 0.78899997
-0.028214287 0.089046247 0.79000002
-0.02668919 0.089046247 0.79000002
-0.0252278 0.08927168 0.792
-0.023698842 0.08927168 0.792
-0.02222587 0.089497112 0.79400003
-0.020693051 0.089497112 0.79400003
-0.019160232 0.089497112 0.79400003
-0.017627414 0.089497112 0.79400003
-0.016094595 0.089497112 0.79400003
-0.014598455 0.089722544 0.796
-0.013061776 0.089722544 0.796
-0.011525096 0.089722544 0.796
-0.0099884169 0.089722544 0.796
-0.0084729725 0.089947976 0.79799998
-0.0069324323 0.089947976 0.79799998
-0.0053918916 0.089947976 0.79799998
-0.0038513513 0.089947976 0.79799998
-0.0023108108 0.089947976 0.79799998
-0.00077220076 0.090173408 0.80000001
0.00077220076 0.090173408 0.80000001
0.0023166023 0.090173408 0.80000001
0.003861004 0.090173408 0.80000001
0.005418919 0.090398841 0.80199999
0.0069758687 0.09051156 0.80299997
0.0085260617 0.09051156 0.80299997
0.010076255 0.09051156 0.80299997
0.011626448 0.09051156 0.80299997
0.01317664 0.09051156 0.80299997
0.014726833 0.09051156 0.80299997
0.016317567 0.090736993 0.80500001
-0.062009651 0.088734105 0.77399999
-0.060671818 0.088963397 0.77600002
-0.059326254 0.089192681 0.778
-0.057972971 0.089421965 0.77999997
-0.056467179 0.089421965 0.77999997
-0.054961387 0.089421965 0.77999997
-0.053524133 0.089536607 0.78100002
-0.052016411 0.089536607 0.78100002
-0.050508689 0.089536607 0.78100002
-0.049000967 0.089536607 0.78100002
-0.047493245 0.089536607 0.78100002
-0.045985524 0.089536607 0.78100002
-0.044591699 0.089765891 0.78299999
-0.043080114 0.089765891 0.78299999
-0.041780889 0.090224467 0.787
-0.040261582 0.090224467 0.787
-0.038742278 0.090224467 0.787
-0.037317567 0.090453751 0.78899997
-0.0357944 0.090453751 0.78899997
-0.034271233 0.090453751 0.78899997
-0.032789577 0.090568401 0.79000002
-0.03126448 0.090568401 0.79000002
-0.029739384 0.090568401 0.79000002
-0.028214287 0.090568401 0.79000002
-0.02668919 0.090568401 0.79000002
-0.025291506 0.091026977 0.79400003
-0.023818532 0.091256261 0.796
-0.022281853 0.091256261 0.796
-0.020745173 0.091256261 0.796
-0.019208495 0.091256261 0.796
-0.017671814 0.091256261 0.796
-0.016175676 0.091485545 0.79799998
-0.014635134 0.091485545 0.79799998
-0.013094594 0.091485545 0.79799998
-0.011554054 0.091485545 0.79799998
-0.010013513 0.091485545 0.79799998
-0.0084729725 0.091485545 0.79799998
-0.0069324323 0.091485545 0.79799998
-0.0053918916 0.091485545 0.79799998
-0.003861004 0.091714837 0.80000001
-0.0023166023 0.091714837 0.80000001
-0.00077220076 0.091714837 0.80000001
0.00077413127 0.091944121 0.80199999
0.0023223937 0.091944121 0.80199999
0.0038706562 0.091944121 0.80199999
0.0054256753 0.092058763 0.80299997
0.0069758687 0.092058763 0.80299997
0.0085260617 0.092058763 0.80299997
0.010076255 0.092058763 0.80299997
0.011626448 0.092058763 0.80299997
0.01317664 0.092058763 0.80299997
0.014726833 0.092058763 0.80299997
0.016317567 0.092288055 0.80500001
0.017916022 0.092517339 0.80699998
-0.062169887 0.090458579 0.77600002
-0.060828187 0.090691715 0.778
-0.059326254 0.090691715 0.778
-0.057972971 0.090924852 0.77999997
-0.056539577 0.091041431 0.78100002
-0.055031855 0.091041431 0.78100002
-0.053524133 0.091041431 0.78100002
-0.052016411 0.091041431 0.78100002
-0.050508689 0.091041431 0.78100002
-0.049000967 0.091041431 0.78100002
-0.047493245 0.091041431 0.78100002
-0.04610328 0.091274567 0.78299999
-0.0447056 0.091507711 0.78500003
-0.043190155 0.091507711 0.78500003
-0.041780889 0.091740847 0.787
-0.040363897 0.091973983 0.78899997
-0.038840733 0.091973983 0.78899997
-0.037317567 0.091973983 0.78899997
-0.0357944 0.091973983 0.78899997
-0.034314673 0.092090562 0.79000002
-0.032789577 0.092090562 0.79000002
-0.03126448 0.092090562 0.79000002
-0.029814672 0.092323698 0.792
-0.028285714 0.092323698 0.792
-0.026756756 0.092323698 0.792
-0.025355212 0.092789978 0.796
-0.023818532 0.092789978 0.796
-0.022281853 0.092789978 0.796
-0.020745173 0.092789978 0.796
-0.019256756 0.093023121 0.79799998
-0.017716216 0.093023121 0.79799998
-0.016175676 0.093023121 0.79799998
-0.014635134 0.093023121 0.79799998
-0.013094594 0.093023121 0.79799998
-0.011583012 0.093256265 0.80000001
-0.010038611 0.093256265 0.80000001
-0.0084942086 0.093256265 0.80000001
-0.0069498071 0.093256265 0.80000001
-0.0054054055 0.093256265 0.80000001
-0.003861004 0.093256265 0.80000001
-0.0023223937 0.093489401 0.80199999
-0.00077413127 0.093489401 0.80199999
0.00077509647 0.093605973 0.80299997
0.0023252894 0.093605973 0.80299997
0.0038754826 0.093605973 0.80299997
0.0054256753 0.093605973 0.80299997
0.0069932435 0.093839116 0.80500001
0.0085472977 0.093839116 0.80500001
0.010101352 0.093839116 0.80500001
0.011655405 0.093839116 0.80500001
0.013209459 0.093839116 0.80500001
0.014763514 0.093839116 0.80500001
0.01639865 0.094305396 0.80900002
0.017960425 0.094305396 0.80900002
-0.063667953 0.091953762 0.77600002
-0.062330116 0.09219075 0.778
-0.060828187 0.09219075 0.778
-0.05955502 0.092546247 0.78100002
-0.058047298 0.092546247 0.78100002
-0.056539577 0.092546247 0.78100002
-0.055031855 0.092546247 0.78100002
-0.053524133 0.092546247 0.78100002
-0.052016411 0.092546247 0.78100002
-0.050508689 0.092546247 0.78100002
-0.049126446 0.092783235 0.78299999
-0.047614865 0.092783235 0.78299999
-0.04610328 0.092783235 0.78299999
-0.044819497 0.093257226 0.787
-0.043300193 0.093257226 0.787
-0.041887064 0.093494214 0.78899997
-0.040363897 0.093494214 0.78899997
-0.038840733 0.093494214 0.78899997
-0.037317567 0.093494214 0.78899997
-0.03583977 0.093612716 0.79000002
-0.034401543 0.093849711 0.792
-0.032872587 0.093849711 0.792
-0.031343628 0.093849711 0.792
-0.029814672 0.093849711 0.792
-0.028285714 0.093849711 0.792
-0.026824325 0.094086707 0.79400003
-0.025355212 0.094323702 0.796
-0.023818532 0.094323702 0.796
-0.022337837 0.09456069 0.79799998
-0.020797297 0.09456069 0.79799998
-0.019256756 0.09456069 0.79799998
-0.017760618 0.094797686 0.80000001
-0.016216217 0.094797686 0.80000001
-0.014671815 0.094797686 0.80000001
-0.013127414 0.094797686 0.80000001
-0.011583012 0.094797686 0.80000001
-0.010063706 0.095034681 0.80199999
-0.0085154437 0.095034681 0.80199999
-0.0069671813 0.095034681 0.80199999
-0.005418919 0.095034681 0.80199999
-0.0038754826 0.095153175 0.80299997
-0.0023252894 0.095153175 0.80299997
-0.00077509647 0.095153175 0.80299997
0.00077509647 0.095153175 0.80299997
0.0023310811 0.095390171 0.80500001
0.0038851351 0.095390171 0.80500001
0.0054391893 0.095390171 0.80500001
0.0069932435 0.095390171 0.80500001
0.0085472977 0.095390171 0.80500001
