# .PCD v0.7 - Point Cloud Data file format
VERSION 0.7
FIELDS x y z
SIZE 4 4 4
TYPE F F F
COUNT 1 1 1
WIDTH 1386
HEIGHT 1
VIEWPOINT 0 0 0 1 0 0 0
POINTS 1386
DATA ascii
-0.25756562 0.061994217 0.85799998
-0.25650579 0.062138729 0.86000001
-0.25484556 0.062138729 0.86000001
-0.25377414 0.062283237 0.86199999
-0.33196816 0.05838054 0.787
-0.33044884 0.05838054 0.787
-0.32976544 0.0585289 0.78899997
-0.32824227 0.0585289 0.78899997
-0.32713321 0.058603086 0.79000002
-0.3256081 0.058603086 0.79000002
-0.32408303 0.058603086 0.79000002
-0.32255793 0.058603086 0.79000002
-0.32184556 0.058751445 0.792
-0.32031661 0.058751445 0.792
-0.31878763 0.058751445 0.792
-0.31805986 0.058899809 0.79400003
-0.31652704 0.058899809 0.79400003
-0.31578764 0.059048168 0.796
-0.31425098 0.059048168 0.796
-0.31349999 0.059196532 0.79799998
-0.31274131 0.059344895 0.80000001
-0.31119692 0.059344895 0.80000001
-0.31042662 0.059493255 0.80199999
-0.3092635 0.059567437 0.80299997
-0.3077133 0.059567437 0.80299997
-0.30692568 0.0597158 0.80500001
-0.306889 0.060012527 0.80900002
-0.30532724 0.060012527 0.80900002
-0.30376545 0.060012527 0.80900002
-0.30220369 0.060012527 0.80900002
-0.30138513 0.060160886 0.81099999
-0.30055889 0.06030925 0.81300002
-0.29898939 0.06030925 0.81300002
-0.29815155 0.06045761 0.815
-0.29730597 0.060605969 0.81699997
-0.2964527 0.060754336 0.81900001
-0.29487163 0.060754336 0.81900001
-0.29329056 0.060754336 0.81900001
-0.29242182 0.060902696 0.82099998
-0.29154536 0.06105106 0.82300001
-0.29066119 0.061199423 0.82499999
-0.28976932 0.061347786 0.82700002
-0.28817278 0.061347786 0.82700002
-0.28657627 0.061347786 0.82700002
-0.28566891 0.061496146 0.829
-0.28406852 0.061496146 0.829
-0.2831496 0.061644506 0.83099997
-0.28154537 0.061644506 0.83099997
-0.28061485 0.061792873 0.833
-0.27900675 0.061792873 0.833
-0.27806467 0.061941233 0.83499998
-0.27711487 0.062089596 0.83700001
-0.27615732 0.062237956 0.83899999
-0.27519208 0.062386323 0.84100002
-0.2742191 0.062534682 0.84299999
-0.27259171 0.062534682 0.84299999
-0.27160716 0.062683046 0.84500003
-0.27061486 0.062831409 0.847
-0.26961485 0.062979765 0.84899998
-0.26797587 0.062979765 0.84899998
-0.26633686 0.062979765 0.84899998
-0.26532143 0.063128129 0.85100001
-0.26367858 0.063128129 0.85100001
-0.26295945 0.06335067 0.85399997
-0.26131082 0.06335067 0.85399997
-0.26027027 0.063499033 0.85600001
-0.259222 0.063647397 0.85799998
-0.25756562 0.063647397 0.85799998
-0.25650579 0.06379576 0.86000001
-0.25484556 0.06379576 0.86000001
-0.25377414 0.063944124 0.86199999
-0.33281177 0.060049132 0.78899997
-0.33128861 0.060049132 0.78899997
-0.32976544 0.060049132 0.78899997
-0.32824227 0.060049132 0.78899997
-0.32713321 0.060125243 0.79000002
-0.32643244 0.060277455 0.792
-0.32490346 0.060277455 0.792
-0.32337451 0.060277455 0.792
-0.32184556 0.060277455 0.792
-0.32112551 0.060429674 0.79400003
-0.31959268 0.060429674 0.79400003
-0.31805986 0.060429674 0.79400003
-0.31652704 0.060429674 0.79400003
-0.31578764 0.060581889 0.796
-0.31425098 0.060581889 0.796
-0.31349999 0.060734101 0.79799998
-0.31274131 0.06088632 0.80000001
-0.31119692 0.06088632 0.80000001
-0.31042662 0.061038535 0.80199999
-0.3092635 0.061114643 0.80299997
-0.3077133 0.061114643 0.80299997
-0.30692568 0.061266858 0.80500001
-0.306889 0.061571293 0.80900002
-0.30532724 0.061571293 0.80900002
-0.30376545 0.061571293 0.80900002
-0.30295077 0.061723504 0.81099999
-0.30138513 0.061723504 0.81099999
-0.30055889 0.061875723 0.81300002
-0.29972491 0.062027939 0.815
-0.29815155 0.062027939 0.815
-0.29730597 0.06218015 0.81699997
-0.29572874 0.06218015 0.81699997
-0.29487163 0.062332369 0.81900001
-0.29329056 0.062332369 0.81900001
-0.29242182 0.062484585 0.82099998
-0.29154536 0.0626368 0.82300001
-0.29066119 0.062789015 0.82499999
-0.28976932 0.062941238 0.82700002
-0.28817278 0.062941238 0.82700002
-0.28657627 0.062941238 0.82700002
-0.28566891 0.063093446 0.829
-0.28475386 0.063245662 0.83099997
-0.28383109 0.063397884 0.833
-0.28222299 0.063397884 0.833
-0.28128859 0.063550092 0.83499998
-0.27967665 0.063550092 0.83499998
-0.27777702 0.06385453 0.83899999
-0.27615732 0.06385453 0.83899999
-0.27519208 0.064006746 0.84100002
-0.2742191 0.064158961 0.84299999
-0.27259171 0.064158961 0.84299999
-0.27225 0.064463392 0.847
-0.27061486 0.064463392 0.847
-0.26961485 0.064615607 0.84899998
-0.26797587 0.064615607 0.84899998
-0.26696429 0.064767823 0.85100001
-0.26532143 0.064767823 0.85100001
-0.26367858 0.064767823 0.85100001
-0.26357529 0.065148361 0.85600001
-0.26192278 0.065148361 0.85600001
-0.26027027 0.065148361 0.85600001
-0.259222 0.065300576 0.85799998
-0.25816602 0.065452792 0.86000001
-0.25650579 0.065452792 0.86000001
-0.33281177 0.061569363 0.78899997
-0.33128861 0.061569363 0.78899997
-0.32976544 0.061569363 0.78899997
-0.32865831 0.0616474 0.79000002
-0.32796139 0.061803468 0.792
-0.32643244 0.061803468 0.792
-0.32490346 0.061803468 0.792
-0.32337451 0.061803468 0.792
-0.3226583 0.061959539 0.79400003
-0.32112551 0.061959539 0.79400003
-0.31959268 0.061959539 0.79400003
-0.31805986 0.061959539 0.79400003
-0.31732434 0.062115606 0.796
-0.31578764 0.062115606 0.796
-0.31504053 0.062271673 0.79799998
-0.31428573 0.062427748 0.80000001
-0.31352317 0.062583812 0.80199999
-0.31197491 0.062583812 0.80199999
-0.31042662 0.062583812 0.80199999
-0.3100338 0.062817916 0.80500001
-0.30847973 0.062817916 0.80500001
-0.30768821 0.062973984 0.80699998
-0.306889 0.063130058 0.80900002
-0.30532724 0.063130058 0.80900002
-0.3045164 0.063286126 0.81099999
-0.30295077 0.063286126 0.81099999
-0.30138513 0.063286126 0.81099999
-0.30055889 0.0634422 0.81300002
-0.29972491 0.063598268 0.815
-0.2988832 0.063754335 0.81699997
-0.29730597 0.063754335 0.81699997
-0.29572874 0.063754335 0.81699997
-0.29487163 0.063910402 0.81900001
-0.29329056 0.063910402 0.81900001
-0.29242182 0.06406647 0.82099998
-0.29154536 0.064222544 0.82300001
-0.29066119 0.064378612 0.82499999
-0.28976932 0.064534687 0.82700002
-0.28886968 0.064690754 0.829
-0.28726929 0.064690754 0.829
-0.28635809 0.064846821 0.83099997
-0.28475386 0.064846821 0.83099997
-0.28383109 0.065002888 0.833
-0.28222299 0.065002888 0.833
-0.28128859 0.065158956 0.83499998
-0.27777702 0.065471098 0.83899999
-0.27615732 0.065471098 0.83899999
-0.27519208 0.065627173 0.84100002
-0.2742191 0.06578324 0.84299999
-0.27323842 0.065939307 0.84500003
-0.27225 0.066095375 0.847
-0.27125385 0.066251442 0.84899998
-0.26961485 0.066251442 0.84899998
-0.26860714 0.066407517 0.85100001
-0.26696429 0.066407517 0.85100001
-0.26532143 0.066407517 0.85100001
-0.26367858 0.066407517 0.85100001
-0.33281177 0.063089594 0.78899997
-0.33128861 0.063089594 0.78899997
-0.33018342 0.063169561 0.79000002
-0.32865831 0.063169561 0.79000002
-0.32796139 0.063329481 0.792
-0.32725677 0.063489407 0.79400003
-0.32572395 0.063489407 0.79400003
-0.32419112 0.063489407 0.79400003
-0.3226583 0.063489407 0.79400003
-0.32112551 0.063489407 0.79400003
-0.31959268 0.063489407 0.79400003
-0.31886101 0.063649327 0.796
-0.31732434 0.063649327 0.796
-0.31658107 0.063809246 0.79799998
-0.31583011 0.063969173 0.80000001
-0.31507143 0.064129092 0.80199999
-0.31352317 0.064129092 0.80199999
-0.31197491 0.064129092 0.80199999
-0.3108137 0.064209051 0.80299997
-0.3100338 0.064368978 0.80500001
-0.30847973 0.064368978 0.80500001
-0.30768821 0.064528897 0.80699998
-0.306889 0.064688824 0.80900002
-0.30532724 0.064688824 0.80900002
-0.3045164 0.064848743 0.81099999
-0.30295077 0.064848743 0.81099999
-0.30212837 0.06500867 0.81300002
-0.30129826 0.065168597 0.815
-0.30046043 0.065328516 0.81699997
-0.2988832 0.065328516 0.81699997
-0.29803377 0.065488443 0.81900001
-0.2964527 0.065488443 0.81900001
-0.29487163 0.065488443 0.81900001
-0.29400674 0.065648362 0.82099998
-0.29242182 0.065648362 0.82099998
-0.29154536 0.065808289 0.82300001
-0.29136583 0.066128135 0.82700002
-0.28976932 0.066128135 0.82700002
-0.28886968 0.066288054 0.829
-0.28796235 0.066447973 0.83099997
-0.28635809 0.066447973 0.83099997
-0.28543919 0.0666079 0.833
-0.28383109 0.0666079 0.833
-0.28222299 0.0666079 0.833
-0.28128859 0.066767819 0.83499998
-0.28034654 0.066927746 0.83700001
-0.27777702 0.067087665 0.83899999
-0.27681565 0.067247592 0.84100002
-0.27519208 0.067247592 0.84100002
-0.2742191 0.067407511 0.84299999
-0.27323842 0.067567438 0.84500003
-0.27225 0.067727357 0.847
-0.27125385 0.067887284 0.84899998
-0.27024999 0.068047211 0.85100001
-0.26860714 0.068047211 0.85100001
-0.26696429 0.068047211 0.85100001
-0.26532143 0.068047211 0.85100001
-0.33254826 0.064855494 0.792
-0.33101931 0.064855494 0.792
-0.32949033 0.064855494 0.792
-0.32796139 0.064855494 0.792
-0.32725677 0.065019272 0.79400003
-0.32572395 0.065019272 0.79400003
-0.32419112 0.065019272 0.79400003
-0.3226583 0.065019272 0.79400003
-0.32112551 0.065019272 0.79400003
-0.31959268 0.065019272 0.79400003
-0.31886101 0.065183043 0.796
-0.31812161 0.065346822 0.79799998
-0.31737453 0.065510601 0.80000001
-0.31661969 0.065674372 0.80199999
-0.31507143 0.065674372 0.80199999
-0.31391409 0.065756261 0.80299997
-0.31236389 0.065756261 0.80299997
-0.3108137 0.065756261 0.80299997
-0.3100338 0.06592004 0.80500001
-0.30847973 0.06592004 0.80500001
-0.30845079 0.06624759 0.80900002
-0.306889 0.06624759 0.80900002
-0.30532724 0.06624759 0.80900002
-0.3045164 0.066411369 0.81099999
-0.30295077 0.066411369 0.81099999
-0.30287161 0.066738918 0.815
-0.30129826 0.066738918 0.815
-0.30046043 0.066902697 0.81699997
-0.2988832 0.066902697 0.81699997
-0.29803377 0.067066476 0.81900001
-0.2964527 0.067066476 0.81900001
-0.29559168 0.067230247 0.82099998
-0.29400674 0.067230247 0.82099998
-0.29242182 0.067230247 0.82099998
-0.29225385 0.067557804 0.82499999
-0.29136583 0.067721583 0.82700002
-0.28976932 0.067721583 0.82700002
-0.28886968 0.067885354 0.829
-0.28796235 0.068049133 0.83099997
-0.2870473 0.068212911 0.833
-0.28543919 0.068212911 0.833
-0.28383109 0.068212911 0.833
-0.28290057 0.068376683 0.83499998
-0.28128859 0.068376683 0.83499998
-0.28101641 0.06870424 0.83899999
-0.27939671 0.06870424 0.83899999
-0.27777702 0.06870424 0.83899999
-0.27681565 0.068868019 0.84100002
-0.27584651 0.06903179 0.84299999
-0.2742191 0.06903179 0.84299999
-0.27259171 0.06903179 0.84299999
-0.27225 0.069359347 0.847
-0.27125385 0.069523118 0.84899998
-0.27024999 0.069686897 0.85100001
-0.33101931 0.066381499 0.792
-0.32949033 0.066381499 0.792
-0.32878959 0.066549137 0.79400003
-0.32725677 0.066549137 0.79400003
-0.32572395 0.066549137 0.79400003
-0.32500774 0.06671676 0.796
-0.32347104 0.06671676 0.796
-0.32193437 0.06671676 0.796
-0.32039768 0.06671676 0.796
-0.31886101 0.06671676 0.796
-0.31891891 0.067052022 0.80000001
-0.31737453 0.067052022 0.80000001
-0.31661969 0.067219652 0.80199999
-0.31507143 0.067219652 0.80199999
-0.31391409 0.067303464 0.80299997
-0.31236389 0.067303464 0.80299997
-0.31158784 0.067471102 0.80500001
-0.31080404 0.067638725 0.80699998
-0.30924612 0.067638725 0.80699998
-0.30845079 0.067806363 0.80900002
-0.306889 0.067806363 0.80900002
-0.30608204 0.067973986 0.81099999
-0.3045164 0.067973986 0.81099999
-0.30369788 0.068141617 0.81300002
-0.30287161 0.068309247 0.815
-0.30203763 0.068476878 0.81699997
-0.30046043 0.068476878 0.81699997
-0.2988832 0.068476878 0.81699997
-0.29803377 0.068644509 0.81900001
-0.2964527 0.068644509 0.81900001
-0.29559168 0.068812139 0.82099998
-0.29472297 0.06897977 0.82300001
-0.29313418 0.06897977 0.82300001
-0.29296237 0.069315031 0.82700002
-0.29207045 0.069482662 0.829
-0.29047006 0.069482662 0.829
-0.28956661 0.069650285 0.83099997
-0.2886554 0.069817923 0.833
-0.2870473 0.069817923 0.833
-0.2861245 0.069985546 0.83499998
-0.28451255 0.069985546 0.83499998
-0.28290057 0.069985546 0.83499998
-0.28196236 0.070153177 0.83700001
-0.28101641 0.070320807 0.83899999
-0.27873069 0.070153177 0.83700001
-0.27711487 0.070153177 0.83700001
-0.27615732 0.070320807 0.83899999
-0.27519208 0.070488438 0.84100002
-0.2742191 0.070656069 0.84299999
-0.27259171 0.070656069 0.84299999
-0.27225 0.07099133 0.847
-0.27125385 0.07115896 0.84899998
-0.32878959 0.068079002 0.79400003
-0.32725677 0.068079002 0.79400003
-0.3265444 0.068250485 0.796
-0.32500774 0.068250485 0.796
-0.32347104 0.068250485 0.796
-0.32193437 0.068250485 0.796
-0.32039768 0.068250485 0.796
-0.32046333 0.06859345 0.80000001
-0.31891891 0.06859345 0.80000001
-0.31816795 0.068764932 0.80199999
-0.31661969 0.068764932 0.80199999
-0.31546429 0.068850674 0.80299997
-0.31391409 0.068850674 0.80299997
-0.31314188 0.069022156 0.80500001
-0.31158784 0.069022156 0.80500001
-0.31080404 0.069193639 0.80699998
-0.31001255 0.069365129 0.80900002
-0.30845079 0.069365129 0.80900002
-0.306889 0.069365129 0.80900002
-0.30608204 0.069536611 0.81099999
-0.30526739 0.069708094 0.81300002
-0.30519208 0.070051059 0.81699997
-0.30361485 0.070051059 0.81699997
-0.30203763 0.070051059 0.81699997
-0.30119595 0.070222542 0.81900001
-0.29961488 0.070222542 0.81900001
-0.29876158 0.070394024 0.82099998
-0.29717663 0.070394024 0.82099998
-0.2963118 0.070565514 0.82300001
-0.29543918 0.070736997 0.82499999
-0.29384652 0.070736997 0.82499999
-0.29296237 0.070908479 0.82700002
-0.29207045 0.071079962 0.829
-0.29117084 0.071251445 0.83099997
-0.28956661 0.071251445 0.83099997
-0.2886554 0.071422927 0.833
-0.28773648 0.07159441 0.83499998
-0.2861245 0.07159441 0.83499998
-0.28451255 0.07159441 0.83499998
-0.28357819 0.0717659 0.83700001
-0.28196236 0.0717659 0.83700001
-0.28101641 0.071937375 0.83899999
-0.27873069 0.0717659 0.83700001
-0.27711487 0.0717659 0.83700001
-0.27615732 0.071937375 0.83899999
-0.27453765 0.071937375 0.83899999
-0.27356854 0.072108865 0.84100002
-0.32878959 0.069608867 0.79400003
-0.32808107 0.069784202 0.796
-0.3265444 0.069784202 0.796
-0.32500774 0.069784202 0.796
-0.32428378 0.069959536 0.79799998
-0.32355213 0.070134878 0.80000001
-0.32200772 0.070134878 0.80000001
-0.32046333 0.070134878 0.80000001
-0.31971622 0.070310213 0.80199999
-0.31816795 0.070310213 0.80199999
-0.31661969 0.070310213 0.80199999
-0.31546429 0.070397876 0.80299997
-0.31391409 0.070397876 0.80299997
-0.31314188 0.070573218 0.80500001
-0.31158784 0.070573218 0.80500001
-0.31080404 0.070748553 0.80699998
-0.31001255 0.070923895 0.80900002
-0.30845079 0.070923895 0.80900002
-0.306889 0.070923895 0.80900002
-0.30608204 0.071099229 0.81099999
-0.30526739 0.071274571 0.81300002
-0.30519208 0.07162524 0.81699997
-0.30435812 0.071800582 0.81900001
-0.30277702 0.071800582 0.81900001
-0.30119595 0.071800582 0.81900001
-0.30034652 0.071975917 0.82099998
-0.29948938 0.072151251 0.82300001
-0.29790059 0.072151251 0.82300001
-0.29703185 0.072326586 0.82499999
-0.29543918 0.072326586 0.82499999
-0.29455888 0.072501928 0.82700002
-0.29296237 0.072501928 0.82700002
-0.29207045 0.072677262 0.829
-0.29047006 0.072677262 0.829
-0.2902635 0.073027939 0.833
-0.2886554 0.073027939 0.833
-0.28773648 0.073203273 0.83499998
-0.2861245 0.073203273 0.83499998
-0.28451255 0.073203273 0.83499998
-0.28357819 0.073378615 0.83700001
-0.28263611 0.07355395 0.83899999
-0.28101641 0.07355395 0.83899999
-0.27939671 0.07355395 0.83899999
-0.27645269 0.073203273 0.83499998
-0.27484071 0.073203273 0.83499998
-0.27453765 0.07355395 0.83899999
-0.32878959 0.071138732 0.79400003
-0.32725677 0.071138732 0.79400003
-0.3265444 0.071317919 0.796
-0.32582432 0.071497105 0.79799998
-0.32428378 0.071497105 0.79799998
-0.32355213 0.071676299 0.80000001
-0.32200772 0.071676299 0.80000001
-0.32046333 0.071676299 0.80000001
-0.31971622 0.071855493 0.80199999
-0.31816795 0.071855493 0.80199999
-0.31701446 0.071945086 0.80299997
-0.31546429 0.071945086 0.80299997
-0.31469595 0.07212428 0.80500001
-0.31391987 0.072303466 0.80699998
-0.31236196 0.072303466 0.80699998
-0.31157434 0.07248266 0.80900002
-0.31001255 0.07248266 0.80900002
-0.30845079 0.07248266 0.80900002
-0.30764768 0.072661847 0.81099999
-0.30683687 0.072841041 0.81300002
-0.30601835 0.073020235 0.815
-0.3059392 0.073378615 0.81900001
-0.30435812 0.073378615 0.81900001
-0.30277702 0.073378615 0.81900001
-0.30034652 0.073557802 0.82099998
-0.29948938 0.073736995 0.82300001
-0.29862452 0.073916182 0.82499999
-0.29775193 0.074095376 0.82700002
-0.29615542 0.074095376 0.82700002
-0.29455888 0.074095376 0.82700002
-0.29296237 0.074095376 0.82700002
-0.29207045 0.07427457 0.829
-0.29047006 0.07427457 0.829
-0.28956661 0.074453756 0.83099997
-0.28796235 0.074453756 0.83099997
-0.28773648 0.074812137 0.83499998
-0.2861245 0.074812137 0.83499998
-0.28451255 0.074812137 0.83499998
-0.28357819 0.074991331 0.83700001
-0.28263611 0.075170517 0.83899999
-0.28101641 0.075170517 0.83899999
-0.27806467 0.074812137 0.83499998
-0.27579054 0.07463295 0.833
-0.27418244 0.07463295 0.833
-0.32878959 0.072668597 0.79400003
-0.32725677 0.072668597 0.79400003
-0.3265444 0.072851636 0.796
-0.32582432 0.073034681 0.79799998
-0.32509652 0.073217727 0.80000001
-0.32355213 0.073217727 0.80000001
-0.32200772 0.073217727 0.80000001
-0.32126448 0.073400773 0.80199999
-0.31971622 0.073400773 0.80199999
-0.31856465 0.073492289 0.80299997
-0.31701446 0.073492289 0.80299997
-0.31546429 0.073492289 0.80299997
-0.31469595 0.073675334 0.80500001
-0.31391987 0.07385838 0.80699998
-0.31236196 0.07385838 0.80699998
-0.31157434 0.074041426 0.80900002
-0.31001255 0.074041426 0.80900002
-0.30845079 0.074041426 0.80900002
-0.30764768 0.074224472 0.81099999
-0.30683687 0.074407518 0.81300002
-0.30676928 0.074773602 0.81699997
-0.3059392 0.074956648 0.81900001
-0.30435812 0.074956648 0.81900001
-0.3010782 0.07532274 0.82300001
-0.30021718 0.075505778 0.82499999
-0.29862452 0.075505778 0.82499999
-0.29775193 0.075688824 0.82700002
-0.29615542 0.075688824 0.82700002
-0.29455888 0.075688824 0.82700002
-0.29367086 0.07587187 0.829
-0.29277509 0.076054908 0.83099997
-0.29117084 0.076054908 0.83099997
-0.28956661 0.076054908 0.83099997
-0.28796235 0.076054908 0.83099997
-0.28773648 0.076421 0.83499998
-0.2861245 0.076421 0.83499998
-0.28451255 0.076421 0.83499998
-0.28357819 0.076604046 0.83700001
-0.28263611 0.076787092 0.83899999
-0.33032241 0.074198462 0.79400003
-0.32878959 0.074198462 0.79400003
-0.32808107 0.07438536 0.796
-0.3265444 0.07438536 0.796
-0.32664093 0.074759156 0.80000001
-0.32509652 0.074759156 0.80000001
-0.324361 0.074946046 0.80199999
-0.32281274 0.074946046 0.80199999
-0.32126448 0.074946046 0.80199999
-0.32011485 0.075039499 0.80299997
-0.31856465 0.075039499 0.80299997
-0.31780407 0.075226396 0.80500001
-0.31625 0.075226396 0.80500001
-0.31547779 0.075413294 0.80699998
-0.31469789 0.075600192 0.80900002
-0.3131361 0.075600192 0.80900002
-0.31157434 0.075600192 0.80900002
-0.31077895 0.07578709 0.81099999
-0.30921331 0.07578709 0.81099999
-0.30840638 0.075973988 0.81300002
-0.30683687 0.075973988 0.81300002
-0.30676928 0.076347783 0.81699997
-0.3059392 0.076534681 0.81900001
-0.30435812 0.076534681 0.81900001
-0.30351639 0.076721579 0.82099998
-0.30266699 0.076908477 0.82300001
-0.3010782 0.076908477 0.82300001
-0.30021718 0.077095374 0.82499999
-0.29862452 0.077095374 0.82499999
-0.29775193 0.077282272 0.82700002
-0.29615542 0.077282272 0.82700002
-0.29527125 0.07746917 0.829
-0.29367086 0.07746917 0.829
-0.29277509 0.077656068 0.83099997
-0.32878959 0.075728327 0.79400003
-0.32808107 0.075919077 0.796
-0.32736486 0.076109827 0.79799998
-0.32664093 0.076300576 0.80000001
-0.32509652 0.076300576 0.80000001
-0.324361 0.076491326 0.80199999
-0.32281274 0.076491326 0.80199999
-0.32126448 0.076491326 0.80199999
-0.32011485 0.076586701 0.80299997
-0.31935811 0.076777458 0.80500001
-0.31780407 0.076777458 0.80500001
-0.3170357 0.076968208 0.80699998
-0.31547779 0.076968208 0.80699998
-0.31469789 0.077158958 0.80900002
-0.3131361 0.077158958 0.80900002
-0.31157434 0.077158958 0.80900002
-0.31077895 0.077349707 0.81099999
-0.30921331 0.077349707 0.81099999
-0.30840638 0.077540465 0.81300002
-0.30759171 0.077731214 0.815
-0.30752027 0.078112714 0.81900001
-0.3059392 0.078112714 0.81900001
-0.30510134 0.078303464 0.82099998
-0.30425578 0.078494221 0.82300001
-0.30266699 0.078494221 0.82300001
-0.30180985 0.078684971 0.82499999
-0.30021718 0.078684971 0.82499999
-0.29934847 0.078875728 0.82700002
-0.29775193 0.078875728 0.82700002
-0.29615542 0.078875728 0.82700002
-0.29455888 0.078875728 0.82700002
-0.32808107 0.077452794 0.796
-0.32736486 0.077647395 0.79799998
-0.32745752 0.078036606 0.80199999
-0.32590926 0.078036606 0.80199999
-0.32476544 0.078133911 0.80299997
-0.32281274 0.078036606 0.80199999
-0.32126448 0.078036606 0.80199999
-0.32091215 0.07832852 0.80500001
-0.32015154 0.078523122 0.80699998
-0.31859362 0.078523122 0.80699998
-0.3170357 0.078523122 0.80699998
-0.31625965 0.078717731 0.80900002
-0.31469789 0.078717731 0.80900002
-0.30916506 0.079301544 0.815
-0.30834651 0.079496145 0.81699997
-0.30752027 0.079690754 0.81900001
-0.3059392 0.079690754 0.81900001
-0.30510134 0.079885356 0.82099998
-0.30351639 0.079885356 0.82099998
-0.30266699 0.080079965 0.82300001
-0.30180985 0.080274567 0.82499999
-0.30021718 0.080274567 0.82499999
-0.29934847 0.080469176 0.82700002
-0.29775193 0.080469176 0.82700002
-0.29615542 0.080469176 0.82700002
-0.32818532 0.079383433 0.80000001
-0.32745752 0.079581887 0.80199999
-0.32631561 0.079681113 0.80299997
-0.32476544 0.079681113 0.80299997
-0.32321525 0.079681113 0.80299997
-0.32326737 0.080078036 0.80699998
-0.32170945 0.080078036 0.80699998
-0.32015154 0.080078036 0.80699998
-0.31073841 0.080871865 0.815
-0.30992374 0.081070326 0.81699997
-0.30910134 0.081268787 0.81900001
-0.30752027 0.081268787 0.81900001
-0.3059392 0.081268787 0.81900001
-0.30510134 0.081467241 0.82099998
-0.30351639 0.081467241 0.82099998
-0.30266699 0.081665702 0.82300001
-0.30180985 0.081864163 0.82499999
-0.30021718 0.081864163 0.82499999
-0.29934847 0.082062624 0.82700002
-0.32900578 0.081127167 0.80199999
-0.32786581 0.081228323 0.80299997
-0.32631561 0.081228323 0.80299997
-0.32476544 0.081228323 0.80299997
-0.32321525 0.081228323 0.80299997
-0.31234458 0.082037568 0.81099999
-0.31231177 0.082442194 0.815
-0.31073841 0.082442194 0.815
-0.30992374 0.082644507 0.81699997
-0.30910134 0.08284682 0.81900001
-0.30752027 0.08284682 0.81900001
-0.3059392 0.08284682 0.81900001
-0.30510134 0.083049133 0.82099998
-0.30351639 0.083049133 0.82099998
-0.30266699 0.083251446 0.82300001
-0.30180985 0.08345376 0.82499999
-0.31311488 0.083806358 0.81300002
-0.31154537 0.083806358 0.81300002
-0.31073841 0.084012523 0.815
-0.30992374 0.084218688 0.81699997
-0.30910134 0.084424853 0.81900001
-0.30752027 0.084424853 0.81900001
-0.3059392 0.084424853 0.81900001
-0.30510134 0.084631018 0.82099998
-0.30351639 0.084631018 0.82099998
-0.31234458 0.085162811 0.81099999
-0.31154537 0.085372835 0.81300002
-0.31073841 0.085582852 0.815
-0.31068245 0.086002894 0.81900001
-0.30910134 0.086002894 0.81900001
-0.30752027 0.086002894 0.81900001
-0.3059392 0.086002894 0.81900001
-0.31234458 0.086725429 0.81099999
-0.31154537 0.086939313 0.81300002
-0.31073841 0.087153181 0.815
-0.31068245 0.087580927 0.81900001
-0.30910134 0.087580927 0.81900001
-0.31234458 0.088288054 0.81099999
-0.31077895 0.088288054 0.81099999
-0.30997589 0.088505782 0.81300002
-0.31068245 0.08915896 0.81900001
-0.31077895 0.089850672 0.81099999
-0.30997589 0.090072259 0.81300002
-0.31068245 0.090736993 0.81900001
-0.32619497 -0.022279384 0.74599999
-0.32619497 -0.022279384 0.74599999
-0.32475483 -0.022279384 0.74599999
-0.32475483 -0.022279384 0.74599999
-0.32331467 -0.022279384 0.74599999
-0.32331467 -0.022279384 0.74599999
-0.32230598 -0.022309247 0.74699998
-0.32230598 -0.022309247 0.74699998
-0.3208639 -0.022309247 0.74699998
-0.3208639 -0.022309247 0.74699998
-0.3194218 -0.022309247 0.74699998
-0.3194218 -0.022309247 0.74699998
-0.32763514 -0.025154142 0.74599999
-0.32763514 -0.025154142 0.74599999
-0.32619497 -0.025154142 0.74599999
-0.32619497 -0.025154142 0.74599999
-0.32519016 -0.025187861 0.74699998
-0.32519016 -0.025187861 0.74699998
-0.32374805 -0.025187861 0.74699998
-0.32374805 -0.025187861 0.74699998
-0.32907528 -0.022279384 0.74599999
-0.32907528 -0.022279384 0.74599999
-0.32763514 -0.022279384 0.74599999
-0.32763514 -0.022279384 0.74599999
-0.32475483 -0.023716763 0.74599999
-0.32475483 -0.023716763 0.74599999
-0.32331467 -0.023716763 0.74599999
-0.32331467 -0.023716763 0.74599999
-0.32230598 -0.023748554 0.74699998
-0.32230598 -0.023748554 0.74699998
-0.3208639 -0.023748554 0.74699998
-0.3208639 -0.023748554 0.74699998
-0.3194218 -0.023748554 0.74699998
-0.3194218 -0.023748554 0.74699998
-0.31797972 -0.023748554 0.74699998
-0.31797972 -0.023748554 0.74699998
-0.32763514 -0.023716763 0.74599999
-0.32763514 -0.023716763 0.74599999
-0.32619497 -0.023716763 0.74599999
-0.32619497 -0.023716763 0.74599999
-0.32763514 -0.020842003 0.74599999
-0.32763514 -0.020842003 0.74599999
-0.32619497 -0.020842003 0.74599999
-0.32619497 -0.020842003 0.74599999
-0.32475483 -0.020842003 0.74599999
-0.32475483 -0.020842003 0.74599999
-0.32374805 -0.020869942 0.74699998
-0.32374805 -0.020869942 0.74699998
-0.32230598 -0.020869942 0.74699998
-0.32230598 -0.020869942 0.74699998
-0.3208639 -0.020869942 0.74699998
-0.3208639 -0.020869942 0.74699998
-0.32763514 -0.019404624 0.74599999
-0.32763514 -0.019404624 0.74599999
-0.32663223 -0.019430635 0.74699998
-0.32663223 -0.019430635 0.74699998
-0.32519016 -0.019430635 0.74699998
-0.32519016 -0.019430635 0.74699998
-0.32374805 -0.019430635 0.74699998
-0.32374805 -0.019430635 0.74699998
-0.32230598 -0.019430635 0.74699998
-0.32230598 -0.019430635 0.74699998
-0.3208639 -0.019430635 0.74699998
-0.3208639 -0.019430635 0.74699998
-0.3194218 -0.019430635 0.74699998
-0.3194218 -0.019430635 0.74699998
-0.32763514 -0.017967245 0.74599999
-0.32763514 -0.017967245 0.74599999
-0.32663223 -0.017991329 0.74699998
-0.32663223 -0.017991329 0.74699998
-0.32519016 -0.017991329 0.74699998
-0.32519016 -0.017991329 0.74699998
-0.32374805 -0.017991329 0.74699998
-0.32374805 -0.017991329 0.74699998
-0.32230598 -0.017991329 0.74699998
-0.32230598 -0.017991329 0.74699998
-0.3208639 -0.017991329 0.74699998
-0.3208639 -0.017991329 0.74699998
-0.3194218 -0.017991329 0.74699998
-0.3194218 -0.017991329 0.74699998
-0.32663223 -0.016552022 0.74699998
-0.32663223 -0.016552022 0.74699998
-0.32519016 -0.016552022 0.74699998
-0.32519016 -0.016552022 0.74699998
-0.32374805 -0.016552022 0.74699998
-0.32374805 -0.016552022 0.74699998
-0.32230598 -0.016552022 0.74699998
-0.32230598 -0.016552022 0.74699998
-0.32663223 -0.015112717 0.74699998
-0.32663223 -0.015112717 0.74699998
-0.32519016 -0.015112717 0.74699998
-0.32519016 -0.015112717 0.74699998
-0.32374805 -0.015112717 0.74699998
-0.32374805 -0.015112717 0.74699998
-0.32663223 -0.01367341 0.74699998
-0.32663223 -0.01367341 0.74699998
-0.32519016 -0.01367341 0.74699998
-0.32519016 -0.01367341 0.74699998
-0.32663223 -0.012234104 0.74699998
-0.32663223 -0.012234104 0.74699998
-0.32907528 -0.019404624 0.74599999
-0.32907528 -0.019404624 0.74599999
-0.32907528 -0.017967245 0.74599999
-0.32907528 -0.017967245 0.74599999
-0.31659266 -0.034140654 0.75400001
-0.31659266 -0.034140654 0.75400001
-0.31555501 -0.034185935 0.755
-0.31555501 -0.034185935 0.755
-0.31409749 -0.034185935 0.755
-0.31409749 -0.034185935 0.755
-0.31263995 -0.034185935 0.755
-0.31263995 -0.034185935 0.755
-0.31200677 -0.034276493 0.75700003
-0.31200677 -0.034276493 0.75700003
-0.30843532 -0.034367051 0.759
-0.30843532 -0.034367051 0.759
-0.30697009 -0.034367051 0.759
-0.30697009 -0.034367051 0.759
-0.32155985 -0.032601155 0.75199997
-0.32155985 -0.032601155 0.75199997
-0.32010809 -0.032601155 0.75199997
-0.32010809 -0.032601155 0.75199997
-0.31950387 -0.032687861 0.75400001
-0.31950387 -0.032687861 0.75400001
-0.31804827 -0.032687861 0.75400001
-0.31804827 -0.032687861 0.75400001
-0.31659266 -0.032687861 0.75400001
-0.31659266 -0.032687861 0.75400001
-0.31513706 -0.032687861 0.75400001
-0.31513706 -0.032687861 0.75400001
-0.31368148 -0.032687861 0.75400001
-0.31368148 -0.032687861 0.75400001
-0.31222588 -0.032687861 0.75400001
-0.31222588 -0.032687861 0.75400001
-0.31118244 -0.032731213 0.755
-0.31118244 -0.032731213 0.755
-0.31054538 -0.032817919 0.75700003
-0.31054538 -0.032817919 0.75700003
-0.309084 -0.032817919 0.75700003
-0.309084 -0.032817919 0.75700003
-0.30762261 -0.032817919 0.75700003
-0.30762261 -0.032817919 0.75700003
-0.3221525 -0.031069364 0.75
-0.3221525 -0.031069364 0.75
-0.32155985 -0.031152215 0.75199997
-0.32155985 -0.031152215 0.75199997
-0.32010809 -0.031152215 0.75199997
-0.32010809 -0.031152215 0.75199997
-0.31865636 -0.031152215 0.75199997
-0.31865636 -0.031152215 0.75199997
-0.31720462 -0.031152215 0.75199997
-0.31720462 -0.031152215 0.75199997
-0.31575289 -0.031152215 0.75199997
-0.31575289 -0.031152215 0.75199997
-0.31430113 -0.031152215 0.75199997
-0.31430113 -0.031152215 0.75199997
-0.31368148 -0.031235067 0.75400001
-0.31368148 -0.031235067 0.75400001
-0.31222588 -0.031235067 0.75400001
-0.31222588 -0.031235067 0.75400001
-0.31077027 -0.031235067 0.75400001
-0.31077027 -0.031235067 0.75400001
-0.3097249 -0.031276494 0.755
-0.3097249 -0.031276494 0.755
-0.32374805 -0.02950578 0.74699998
-0.32374805 -0.02950578 0.74699998
-0.32316893 -0.029584778 0.74900001
-0.32316893 -0.029584778 0.74900001
-0.32172298 -0.029584778 0.74900001
-0.32172298 -0.029584778 0.74900001
-0.32070464 -0.029624278 0.75
-0.32070464 -0.029624278 0.75
-0.31925675 -0.029624278 0.75
-0.31925675 -0.029624278 0.75
-0.31865636 -0.029703274 0.75199997
-0.31865636 -0.029703274 0.75199997
-0.31720462 -0.029703274 0.75199997
-0.31720462 -0.029703274 0.75199997
-0.31575289 -0.029703274 0.75199997
-0.31575289 -0.029703274 0.75199997
-0.31430113 -0.029703274 0.75199997
-0.31430113 -0.029703274 0.75199997
-0.3128494 -0.029703274 0.75199997
-0.3128494 -0.029703274 0.75199997
-0.31077027 -0.029782275 0.75400001
-0.31077027 -0.029782275 0.75400001
-0.32374805 -0.028066473 0.74699998
-0.32374805 -0.028066473 0.74699998
-0.32230598 -0.028066473 0.74699998
-0.32230598 -0.028066473 0.74699998
-0.32172298 -0.02814162 0.74900001
-0.32172298 -0.02814162 0.74900001
-0.32027704 -0.02814162 0.74900001
-0.32027704 -0.02814162 0.74900001
-0.31883109 -0.02814162 0.74900001
-0.31883109 -0.02814162 0.74900001
-0.31780887 -0.028179191 0.75
-0.31780887 -0.028179191 0.75
-0.31636101 -0.028179191 0.75
-0.31636101 -0.028179191 0.75
-0.31491312 -0.028179191 0.75
-0.31491312 -0.028179191 0.75
-0.31346524 -0.028179191 0.75
-0.31346524 -0.028179191 0.75
-0.32027704 -0.026698459 0.74900001
-0.32027704 -0.026698459 0.74900001
-0.31883109 -0.026698459 0.74900001
-0.31883109 -0.026698459 0.74900001
-0.31738514 -0.026698459 0.74900001
-0.31738514 -0.026698459 0.74900001
-0.31593919 -0.026698459 0.74900001
-0.31593919 -0.026698459 0.74900001
-0.32907528 -0.020842003 0.74599999
-0.32907528 -0.020842003 0.74599999
-0.29896426 -0.032991327 0.76099998
-0.29896426 -0.032991327 0.76099998
-0.3019025 -0.031525046 0.76099998
-0.3019025 -0.031525046 0.76099998
-0.3004334 -0.031525046 0.76099998
-0.3004334 -0.031525046 0.76099998
-0.29896426 -0.031525046 0.76099998
-0.29896426 -0.031525046 0.76099998
-0.30337161 -0.030058766 0.76099998
-0.30337161 -0.030058766 0.76099998
-0.3019025 -0.030058766 0.76099998
-0.3019025 -0.030058766 0.76099998
-0.3004334 -0.030058766 0.76099998
-0.3004334 -0.030058766 0.76099998
-0.32360038 -0.0093930634 0.75
-0.32360038 -0.0093930634 0.75
-0.32907528 -0.023716763 0.74599999
-0.32907528 -0.023716763 0.74599999
-0.3208639 -0.025187861 0.74699998
-0.3208639 -0.025187861 0.74699998
-0.3194218 -0.025187861 0.74699998
-0.3194218 -0.025187861 0.74699998
-0.31797972 -0.025187861 0.74699998
-0.31797972 -0.025187861 0.74699998
-0.33051544 -0.019404624 0.74599999
-0.33051544 -0.019404624 0.74599999
-0.3004334 -0.034457609 0.76099998
-0.3004334 -0.034457609 0.76099998
-0.30337161 -0.032991327 0.76099998
-0.30337161 -0.032991327 0.76099998
-0.3019025 -0.032991327 0.76099998
-0.3019025 -0.032991327 0.76099998
-0.3004334 -0.032991327 0.76099998
-0.3004334 -0.032991327 0.76099998
-0.30484071 -0.031525046 0.76099998
-0.30484071 -0.031525046 0.76099998
-0.30337161 -0.031525046 0.76099998
-0.30337161 -0.031525046 0.76099998
-0.24694787 -0.051766858 0.80199999
-0.24694787 -0.051766858 0.80199999
-0.24570559 -0.051831406 0.80299997
-0.24570559 -0.051831406 0.80299997
-0.24476351 -0.051960502 0.80500001
-0.24476351 -0.051960502 0.80500001
-0.24381369 -0.052089594 0.80699998
-0.24381369 -0.052089594 0.80699998
-0.24225579 -0.052089594 0.80699998
-0.24225579 -0.052089594 0.80699998
-0.3221525 -0.0093930634 0.75
-0.3221525 -0.0093930634 0.75
-0.32015735 0.0021936416 0.759
-0.32015735 0.0021936416 0.759
-0.32230598 -0.025187861 0.74699998
-0.32230598 -0.025187861 0.74699998
-0.32230598 -0.026627166 0.74699998
-0.32230598 -0.026627166 0.74699998
-0.3208639 -0.026627166 0.74699998
-0.3208639 -0.026627166 0.74699998
-0.32360038 -0.01083815 0.75
-0.32360038 -0.01083815 0.75
-0.32750675 -0.032471098 0.74900001
-0.32750675 -0.032471098 0.74900001
-0.32750675 -0.031027939 0.74900001
-0.32750675 -0.031027939 0.74900001
-0.32301158 -0.032601155 0.75199997
-0.32301158 -0.032601155 0.75199997
-0.32360038 -0.031069364 0.75
-0.32360038 -0.031069364 0.75
-0.32763514 -0.016529866 0.74599999
-0.32763514 -0.016529866 0.74599999
-0.30826738 -0.031276494 0.755
-0.30826738 -0.031276494 0.755
-0.30931467 -0.029782275 0.75400001
-0.30931467 -0.029782275 0.75400001
-0.30337161 -0.035923891 0.76099998
-0.30337161 -0.035923891 0.76099998
-0.3019025 -0.035923891 0.76099998
-0.3019025 -0.035923891 0.76099998
-0.3004334 -0.035923891 0.76099998
-0.3004334 -0.035923891 0.76099998
-0.30484071 -0.034457609 0.76099998
-0.30484071 -0.034457609 0.76099998
-0.30337161 -0.034457609 0.76099998
-0.30337161 -0.034457609 0.76099998
-0.3019025 -0.034457609 0.76099998
-0.3019025 -0.034457609 0.76099998
-0.30484071 -0.032991327 0.76099998
-0.30484071 -0.032991327 0.76099998
-0.23463997 -0.052476879 0.81300002
-0.23463997 -0.052476879 0.81300002
-0.33195558 -0.019404624 0.74599999
-0.33195558 -0.019404624 0.74599999
-0.33195558 -0.022279384 0.74599999
-0.33195558 -0.022279384 0.74599999
-0.33195558 -0.020842003 0.74599999
-0.33195558 -0.020842003 0.74599999
-0.3289527 -0.031027939 0.74900001
-0.3289527 -0.031027939 0.74900001
-0.30193147 0.073557802 0.82099998
-0.30193147 0.073557802 0.82099998
-0.23463997 -0.05560983 0.81300002
-0.23463997 -0.05560983 0.81300002
-0.34448841 0.073400773 0.80199999
-0.34448841 0.073400773 0.80199999
-0.34491795 0.075039499 0.80299997
-0.34491795 0.075039499 0.80299997
-0.34448841 0.076491326 0.80199999
-0.34448841 0.076491326 0.80199999
-0.34522298 0.086725429 0.81099999
-0.34522298 0.086725429 0.81099999
-0.34522298 0.088288054 0.81099999
-0.34522298 0.088288054 0.81099999
-0.34365734 0.088288054 0.81099999
-0.34365734 0.088288054 0.81099999
-0.34365734 0.089850672 0.81099999
-0.34365734 0.089850672 0.81099999
-0.34607434 0.091638729 0.81300002
-0.34607434 0.091638729 0.81300002
-0.34365734 0.091413297 0.81099999
-0.34365734 0.091413297 0.81099999
-0.34450483 0.093205206 0.81300002
-0.34450483 0.093205206 0.81300002
-0.34124807 0.09274663 0.80900002
-0.34124807 0.09274663 0.80900002
-0.34450483 0.094771676 0.81300002
-0.34450483 0.094771676 0.81300002
-0.34124807 0.094305396 0.80900002
-0.34124807 0.094305396 0.80900002
-0.34535232 0.096575141 0.815
-0.34535232 0.096575141 0.815
-0.34124807 0.095864162 0.80900002
-0.34124807 0.095864162 0.80900002
-0.34678861 0.097663775 0.81099999
-0.34678861 0.097663775 0.81099999
-0.34522298 0.097663775 0.81099999
-0.34522298 0.097663775 0.81099999
-0.34365734 0.097663775 0.81099999
-0.34365734 0.097663775 0.81099999
-0.34124807 0.097422928 0.80900002
-0.34124807 0.097422928 0.80900002
-0.34365734 0.099226393 0.81099999
-0.34365734 0.099226393 0.81099999
-0.34124807 0.098981701 0.80900002
-0.34124807 0.098981701 0.80900002
-0.32907528 -0.025154142 0.74599999
-0.32907528 -0.025154142 0.74599999
-0.29896426 -0.030058766 0.76099998
-0.29896426 -0.030058766 0.76099998
-0.30337161 -0.028592484 0.76099998
-0.30337161 -0.028592484 0.76099998
-0.3019025 -0.028592484 0.76099998
-0.3019025 -0.028592484 0.76099998
-0.3004334 -0.028592484 0.76099998
-0.3004334 -0.028592484 0.76099998
-0.29896426 -0.028592484 0.76099998
-0.29896426 -0.028592484 0.76099998
-0.3019025 -0.027126204 0.76099998
-0.3019025 -0.027126204 0.76099998
-0.32504827 -0.01083815 0.75
-0.32504827 -0.01083815 0.75
-0.31139767 -0.029703274 0.75199997
-0.31139767 -0.029703274 0.75199997
-0.32907528 -0.016529866 0.74599999
-0.32907528 -0.016529866 0.74599999
-0.33195558 -0.017967245 0.74599999
-0.33195558 -0.017967245 0.74599999
-0.32504827 -0.0093930634 0.75
-0.32504827 -0.0093930634 0.75
-0.33051544 -0.023716763 0.74599999
-0.33051544 -0.023716763 0.74599999
-0.23463997 -0.054043353 0.81300002
-0.23463997 -0.054043353 0.81300002
-0.30697009 -0.032904625 0.759
-0.30697009 -0.032904625 0.759
-0.3260608 -0.032471098 0.74900001
-0.3260608 -0.032471098 0.74900001
-0.3260608 -0.031027939 0.74900001
-0.3260608 -0.031027939 0.74900001
-0.30351639 0.075139686 0.82099998
-0.30351639 0.075139686 0.82099998
-0.30193147 0.075139686 0.82099998
-0.30193147 0.075139686 0.82099998
-0.33051544 -0.020842003 0.74599999
-0.33051544 -0.020842003 0.74599999
-0.32663223 -0.026627166 0.74699998
-0.32663223 -0.026627166 0.74699998
-0.32519016 -0.026627166 0.74699998
-0.32519016 -0.026627166 0.74699998
-0.3318446 -0.029584778 0.74900001
-0.3318446 -0.029584778 0.74900001
-0.28925192 0.052993257 0.82099998
-0.28925192 0.052993257 0.82099998
-0.32807431 -0.026627166 0.74699998
-0.32807431 -0.026627166 0.74699998
-0.33240056 -0.026627166 0.74699998
-0.33240056 -0.026627166 0.74699998
-0.33051544 -0.016529866 0.74599999
-0.33051544 -0.016529866 0.74599999
-0.22633107 -0.057457607 0.81699997
-0.22633107 -0.057457607 0.81699997
-0.2279083 -0.055883426 0.81699997
-0.2279083 -0.055883426 0.81699997
-0.22633107 -0.055883426 0.81699997
-0.22633107 -0.055883426 0.81699997
-0.22475386 -0.055883426 0.81699997
-0.22475386 -0.055883426 0.81699997
-0.2279083 -0.054309245 0.81699997
-0.2279083 -0.054309245 0.81699997
-0.22633107 -0.054309245 0.81699997
-0.22633107 -0.054309245 0.81699997
-0.22475386 -0.054309245 0.81699997
-0.22475386 -0.054309245 0.81699997
-0.2279083 -0.052735064 0.81699997
-0.2279083 -0.052735064 0.81699997
-0.22633107 -0.052735064 0.81699997
-0.22633107 -0.052735064 0.81699997
-0.22475386 -0.052735064 0.81699997
-0.22475386 -0.052735064 0.81699997
-0.22948551 -0.051160883 0.81699997
-0.22948551 -0.051160883 0.81699997
-0.2279083 -0.051160883 0.81699997
-0.2279083 -0.051160883 0.81699997
-0.22633107 -0.051160883 0.81699997
-0.22633107 -0.051160883 0.81699997
-0.22475386 -0.051160883 0.81699997
-0.22475386 -0.051160883 0.81699997
-0.22317663 -0.051160883 0.81699997
-0.22317663 -0.051160883 0.81699997
-0.22948551 -0.049586702 0.81699997
-0.22948551 -0.049586702 0.81699997
-0.22846621 -0.049708094 0.81900001
-0.22846621 -0.049708094 0.81900001
-0.22633107 -0.049586702 0.81699997
-0.22633107 -0.049586702 0.81699997
-0.22475386 -0.049586702 0.81699997
-0.22475386 -0.049586702 0.81699997
-0.22317663 -0.049586702 0.81699997
-0.22317663 -0.049586702 0.81699997
-0.2300473 -0.048130058 0.81900001
-0.2300473 -0.048130058 0.81900001
-0.2279083 -0.048012521 0.81699997
-0.2279083 -0.048012521 0.81699997
-0.22633107 -0.048012521 0.81699997
-0.22633107 -0.048012521 0.81699997
-0.22475386 -0.048012521 0.81699997
-0.22475386 -0.048012521 0.81699997
-0.22317663 -0.048012521 0.81699997
-0.22317663 -0.048012521 0.81699997
-0.2300473 -0.046552025 0.81900001
-0.2300473 -0.046552025 0.81900001
-0.2279083 -0.04643834 0.81699997
-0.2279083 -0.04643834 0.81699997
-0.22633107 -0.04643834 0.81699997
-0.22633107 -0.04643834 0.81699997
-0.22475386 -0.04643834 0.81699997
-0.22475386 -0.04643834 0.81699997
-0.22317663 -0.04643834 0.81699997
-0.22317663 -0.04643834 0.81699997
-0.2300473 -0.044973988 0.81900001
-0.2300473 -0.044973988 0.81900001
-0.2279083 -0.044864159 0.81699997
-0.2279083 -0.044864159 0.81699997
-0.22633107 -0.044864159 0.81699997
-0.22633107 -0.044864159 0.81699997
-0.22475386 -0.044864159 0.81699997
-0.22475386 -0.044864159 0.81699997
-0.22317663 -0.044864159 0.81699997
-0.22317663 -0.044864159 0.81699997
-0.22633107 -0.043289978 0.81699997
-0.22633107 -0.043289978 0.81699997
-0.22475386 -0.043289978 0.81699997
-0.22475386 -0.043289978 0.81699997
-0.22317663 -0.043289978 0.81699997
-0.22317663 -0.043289978 0.81699997
-0.33329055 -0.02814162 0.74900001
-0.33329055 -0.02814162 0.74900001
-0.33051544 -0.017967245 0.74599999
-0.33051544 -0.017967245 0.74599999
-0.32461488 -0.031027939 0.74900001
-0.32461488 -0.031027939 0.74900001
-0.3260608 -0.0079373801 0.74900001
-0.3260608 -0.0079373801 0.74900001
-0.23463997 -0.057176303 0.81300002
-0.23463997 -0.057176303 0.81300002
-0.3157616 -0.0036560693 0.759
-0.3157616 -0.0036560693 0.759
-0.3157616 -0.0021936416 0.759
-0.3157616 -0.0021936416 0.759
-0.31659362 0.00073314062 0.76099998
-0.31659362 0.00073314062 0.76099998
-0.33195558 -0.023716763 0.74599999
-0.33195558 -0.023716763 0.74599999
-0.30762261 -0.031359345 0.75700003
-0.30762261 -0.031359345 0.75700003
-0.33051544 -0.022279384 0.74599999
-0.33051544 -0.022279384 0.74599999
-0.3347365 -0.01515318 0.74900001
-0.3347365 -0.01515318 0.74900001
-0.3347365 -0.013710019 0.74900001
-0.3347365 -0.013710019 0.74900001
-0.23463997 -0.058742777 0.81300002
-0.23463997 -0.058742777 0.81300002
-0.23364381 -0.058887284 0.815
-0.23364381 -0.058887284 0.815
-0.33095849 -0.026627166 0.74699998
-0.33095849 -0.026627166 0.74699998
-0.33195558 -0.016529866 0.74599999
-0.33195558 -0.016529866 0.74599999
-0.31722683 -0.0036560693 0.759
-0.31722683 -0.0036560693 0.759
-0.31785232 -0.0021878614 0.75700003
-0.31785232 -0.0021878614 0.75700003
-0.31722683 -0.0021936416 0.759
-0.31722683 -0.0021936416 0.759
-0.31785232 -0.0007292871 0.75700003
-0.31785232 -0.0007292871 0.75700003
-0.31722683 -0.00073121389 0.759
-0.31722683 -0.00073121389 0.759
-0.31722683 0.00073121389 0.759
-0.31722683 0.00073121389 0.759
-0.33095849 -0.025187861 0.74699998
-0.33095849 -0.025187861 0.74699998
-0.32519016 -0.02950578 0.74699998
-0.32519016 -0.02950578 0.74699998
-0.32519016 -0.028066473 0.74699998
-0.32519016 -0.028066473 0.74699998
-0.32663223 -0.010794797 0.74699998
-0.32663223 -0.010794797 0.74699998
-0.33240056 -0.025187861 0.74699998
-0.33240056 -0.025187861 0.74699998
-0.32374805 -0.026627166 0.74699998
-0.32374805 -0.026627166 0.74699998
-0.3347365 -0.012266859 0.74900001
-0.3347365 -0.012266859 0.74900001
-0.33373553 -0.01083815 0.75
-0.33373553 -0.01083815 0.75
-0.3260608 -0.0093805399 0.74900001
-0.3260608 -0.0093805399 0.74900001
-0.32951641 -0.026627166 0.74699998
-0.32951641 -0.026627166 0.74699998
-0.30697009 -0.031442195 0.759
-0.30697009 -0.031442195 0.759
-0.32763514 -0.015092486 0.74599999
-0.32763514 -0.015092486 0.74599999
-0.32807431 -0.01367341 0.74699998
-0.32807431 -0.01367341 0.74699998
-0.30550483 -0.031442195 0.759
-0.30550483 -0.031442195 0.759
-0.33462548 -0.0094181113 0.75199997
-0.33462548 -0.0094181113 0.75199997
-0.33551544 -0.0065375725 0.75400001
-0.33551544 -0.0065375725 0.75400001
-0.33551544 -0.0050847786 0.75400001
-0.33551544 -0.0050847786 0.75400001
-0.33596042 -0.0036368016 0.755
-0.33596042 -0.0036368016 0.755
-0.33596042 -0.0021820809 0.755
-0.33596042 -0.0021820809 0.755
-0.33596042 -0.00072736031 0.755
-0.33596042 -0.00072736031 0.755
-0.33596042 0.00072736031 0.755
-0.33596042 0.00072736031 0.755
-0.31449324 -0.026698459 0.74900001
-0.31449324 -0.026698459 0.74900001
-0.32663223 -0.02950578 0.74699998
-0.32663223 -0.02950578 0.74699998
-0.23973262 -0.060012527 0.80900002
-0.23973262 -0.060012527 0.80900002
-0.23719402 -0.060160886 0.81099999
-0.23719402 -0.060160886 0.81099999
-0.24285619 -0.058453757 0.80900002
-0.24285619 -0.058453757 0.80900002
-0.2412944 -0.058453757 0.80900002
-0.2412944 -0.058453757 0.80900002
-0.23973262 -0.058453757 0.80900002
-0.23973262 -0.058453757 0.80900002
-0.23875965 -0.058598265 0.81099999
-0.23875965 -0.058598265 0.81099999
-0.23719402 -0.058598265 0.81099999
-0.23719402 -0.058598265 0.81099999
-0.23562838 -0.058598265 0.81099999
-0.23562838 -0.058598265 0.81099999
-0.24570559 -0.056473024 0.80299997
-0.24570559 -0.056473024 0.80299997
-0.24476351 -0.05661368 0.80500001
-0.24476351 -0.05661368 0.80500001
-0.24381369 -0.056754336 0.80699998
-0.24381369 -0.056754336 0.80699998
-0.24225579 -0.056754336 0.80699998
-0.24225579 -0.056754336 0.80699998
-0.2412944 -0.056894992 0.80900002
-0.2412944 -0.056894992 0.80900002
-0.23973262 -0.056894992 0.80900002
-0.23973262 -0.056894992 0.80900002
-0.23875965 -0.057035644 0.81099999
-0.23875965 -0.057035644 0.81099999
-0.23719402 -0.057035644 0.81099999
-0.23719402 -0.057035644 0.81099999
-0.24849613 -0.054857418 0.80199999
-0.24849613 -0.054857418 0.80199999
-0.24725579 -0.054925818 0.80299997
-0.24725579 -0.054925818 0.80299997
-0.24570559 -0.054925818 0.80299997
-0.24570559 -0.054925818 0.80299997
-0.24476351 -0.055062622 0.80500001
-0.24476351 -0.055062622 0.80500001
-0.24381369 -0.055199422 0.80699998
-0.24381369 -0.055199422 0.80699998
-0.25004441 -0.053312138 0.80199999
-0.25004441 -0.053312138 0.80199999
-0.24849613 -0.053312138 0.80199999
-0.24849613 -0.053312138 0.80199999
-0.24725579 -0.053378612 0.80299997
-0.24725579 -0.053378612 0.80299997
-0.24570559 -0.053378612 0.80299997
-0.24570559 -0.053378612 0.80299997
-0.24476351 -0.05351156 0.80500001
-0.24476351 -0.05351156 0.80500001
-0.24381369 -0.053644508 0.80699998
-0.24381369 -0.053644508 0.80699998
-0.25033784 -0.051508669 0.79799998
-0.25033784 -0.051508669 0.79799998
-0.24942085 -0.051637765 0.80000001
-0.24942085 -0.051637765 0.80000001
-0.24849613 -0.051766858 0.80199999
-0.24849613 -0.051766858 0.80199999
-0.25432047 -0.049845859 0.796
-0.25432047 -0.049845859 0.796
-0.25278378 -0.049845859 0.796
-0.25278378 -0.049845859 0.796
-0.25187838 -0.049971096 0.79799998
-0.25187838 -0.049971096 0.79799998
-0.25033784 -0.049971096 0.79799998
-0.25033784 -0.049971096 0.79799998
-0.24942085 -0.05009634 0.80000001
-0.24942085 -0.05009634 0.80000001
-0.25674713 -0.048190754 0.79400003
-0.25674713 -0.048190754 0.79400003
-0.33384266 -0.019430635 0.74699998
-0.33384266 -0.019430635 0.74699998
-0.23463997 -0.050910406 0.81300002
-0.23463997 -0.050910406 0.81300002
-0.23521718 -0.049465317 0.815
-0.23521718 -0.049465317 0.815
-0.23521718 -0.047894992 0.815
-0.23521718 -0.047894992 0.815
-0.2357944 -0.04643834 0.81699997
-0.2357944 -0.04643834 0.81699997
-0.2357944 -0.044864159 0.81699997
-0.2357944 -0.044864159 0.81699997
-0.33384266 -0.023748554 0.74699998
-0.33384266 -0.023748554 0.74699998
-0.24762741 0.035543352 0.85799998
-0.24762741 0.035543352 0.85799998
-0.33800095 0.030532755 0.773
-0.33800095 0.030532755 0.773
-0.33843821 0.032063585 0.77399999
-0.33843821 0.032063585 0.77399999
-0.33931276 0.033641618 0.77600002
-0.33931276 0.033641618 0.77600002
-0.33999133 0.038372833 0.78100002
-0.33999133 0.038372833 0.78100002
-0.33999133 0.039877649 0.78100002
-0.33999133 0.039877649 0.78100002
-0.33999133 0.041382466 0.78100002
-0.33999133 0.041382466 0.78100002
-0.34086198 0.042997111 0.78299999
-0.34086198 0.042997111 0.78299999
-0.34086198 0.044505779 0.78299999
-0.34086198 0.044505779 0.78299999
-0.33384266 -0.017991329 0.74699998
-0.33384266 -0.017991329 0.74699998
-0.33384266 -0.020869942 0.74699998
-0.33384266 -0.020869942 0.74699998
-0.33384266 -0.022309247 0.74699998
-0.33384266 -0.022309247 0.74699998
-0.23364381 -0.057316955 0.815
-0.23364381 -0.057316955 0.815
-0.33384266 -0.025187861 0.74699998
-0.33384266 -0.025187861 0.74699998
-0.33384266 -0.026627166 0.74699998
-0.33384266 -0.026627166 0.74699998
-0.24347009 -0.021511562 0.82700002
-0.24347009 -0.021511562 0.82700002
-0.24347009 -0.019918112 0.82700002
-0.24347009 -0.019918112 0.82700002
-0.24447393 -0.018280346 0.82499999
-0.24447393 -0.018280346 0.82499999
