# .PCD v0.7 - Point Cloud Data file format
VERSION 0.7
FIELDS x y z
SIZE 4 4 4
TYPE F F F
COUNT 1 1 1
WIDTH 417
HEIGHT 1
VIEWPOINT 0 0 0 1 0 0 0
POINTS 417
DATA ascii
-0.10920367 0.083771676 0.935
-0.10716892 0.083592489 0.93300003
-0.10536776 0.083592489 0.93300003
-0.1128137 0.085573219 0.935
-0.11100869 0.085573219 0.935
-0.10920367 0.085573219 0.935
-0.10716892 0.085390173 0.93300003
-0.10536776 0.085390173 0.93300003
-0.11437356 0.087187864 0.93300003
-0.11257239 0.087187864 0.93300003
-0.11077124 0.087187864 0.93300003
-0.10897008 0.087187864 0.93300003
-0.10716892 0.087187864 0.93300003
-0.10536776 0.087187864 0.93300003
-0.11797588 0.088985555 0.93300003
-0.11580116 0.088699423 0.93000001
-0.11400579 0.088699423 0.93000001
-0.11196911 0.088508666 0.92799997
-0.11017761 0.088508666 0.92799997
-0.1083861 0.088508666 0.92799997
-0.10682432 0.088699423 0.93000001
-0.10502896 0.088699423 0.93000001
-0.12271814 0.090296723 0.92799997
-0.12092664 0.090296723 0.92799997
-0.11913513 0.090296723 0.92799997
-0.11734363 0.090296723 0.92799997
-0.11555212 0.090296723 0.92799997
-0.11339286 0.090004817 0.92500001
-0.11160714 0.090004817 0.92500001
-0.10958397 0.089810207 0.92299998
-0.10780212 0.089810207 0.92299998
-0.10625 0.090004817 0.92500001
-0.10446429 0.090004817 0.92500001
-0.10267857 0.090004817 0.92500001
-0.12450965 0.092084773 0.92799997
-0.12271814 0.092084773 0.92799997
-0.12092664 0.092084773 0.92799997
-0.11875 0.091787092 0.92500001
-0.11696429 0.091787092 0.92500001
-0.11517857 0.091787092 0.92500001
-0.11339286 0.091787092 0.92500001
-0.11136582 0.091588631 0.92299998
-0.10958397 0.091588631 0.92299998
-0.10780212 0.091588631 0.92299998
-0.10602026 0.091588631 0.92299998
-0.10423841 0.091588631 0.92299998
-0.10245656 0.091588631 0.92299998
-0.10067471 0.091588631 0.92299998
-0.12410714 0.093569368 0.92500001
-0.12205695 0.093367048 0.92299998
-0.1202751 0.093367048 0.92299998
-0.11875 0.093569368 0.92500001
-0.11671139 0.093367048 0.92299998
-0.11492953 0.093367048 0.92299998
-0.11314768 0.093367048 0.92299998
-0.11100386 0.093063585 0.92000002
-0.1092278 0.093063585 0.92000002
-0.10745174 0.093063585 0.92000002
-0.10602026 0.093367048 0.92299998
-0.10389961 0.093063585 0.92000002
-0.10212355 0.093063585 0.92000002
-0.10034749 0.093063585 0.92000002
-0.12630115 0.09566088 0.92799997
-0.12410714 0.095351636 0.92500001
-0.12205695 0.095145471 0.92299998
-0.1202751 0.095145471 0.92299998
-0.11849324 0.095145471 0.92299998
-0.11633205 0.094836228 0.92000002
-0.11455598 0.094836228 0.92000002
-0.11277992 0.094836228 0.92000002
-0.11076254 0.094630055 0.91799998
-0.10899035 0.094630055 0.91799998
-0.10721815 0.094630055 0.91799998
-0.10567567 0.094836228 0.92000002
-0.10367374 0.094630055 0.91799998
-0.10190155 0.094630055 0.91799998
-0.10012934 0.094630055 0.91799998
-0.1274025 0.096923888 0.92299998
-0.12562065 0.096923888 0.92299998
-0.12343629 0.096608862 0.92000002
-0.12166023 0.096608862 0.92000002
-0.11962355 0.096398845 0.91799998
-0.11785135 0.096398845 0.91799998
-0.11607915 0.096398845 0.91799998
-0.11430695 0.096398845 0.91799998
-0.11253475 0.096398845 0.91799998
-0.11076254 0.096398845 0.91799998
-0.10899035 0.096398845 0.91799998
-0.10721815 0.096398845 0.91799998
-0.10544594 0.096398845 0.91799998
-0.10333494 0.09608382 0.91500002
-0.10156853 0.09608382 0.91500002
-0.099802129 0.09608382 0.91500002
-0.12698843 0.098381504 0.92000002
-0.12521236 0.098381504 0.92000002
-0.12343629 0.098381504 0.92000002
-0.12139575 0.098167628 0.91799998
-0.11962355 0.098167628 0.91799998
-0.11785135 0.098167628 0.91799998
-0.11607915 0.098167628 0.91799998
-0.11430695 0.098167628 0.91799998
-0.11216699 0.097846821 0.91500002
-0.11040058 0.097846821 0.91500002
-0.10863417 0.097846821 0.91500002
-0.10686776 0.097846821 0.91500002
-0.10510135 0.097846821 0.91500002
-0.10333494 0.097846821 0.91500002
-0.10156853 0.097846821 0.91500002
-0.099802129 0.097846821 0.91500002
-0.12276544 0.099609829 0.91500002
-0.12099904 0.099609829 0.91500002
-0.11923262 0.099609829 0.91500002
-0.11746622 0.099609829 0.91500002
-0.11569981 0.099609829 0.91500002
-0.1139334 0.099609829 0.91500002
-0.11216699 0.099609829 0.91500002
-0.11040058 0.099609829 0.91500002
-0.10863417 0.099609829 0.91500002
-0.10686776 0.099609829 0.91500002
-0.10510135 0.099609829 0.91500002
-0.10333494 0.099609829 0.91500002
-0.10156853 0.099609829 0.91500002
-0.099802129 0.099609829 0.91500002
-0.12276544 0.10137284 0.91500002
-0.12099904 0.10137284 0.91500002
-0.118972 0.10115125 0.91299999
-0.11720946 0.10115125 0.91299999
-0.11544691 0.10115125 0.91299999
-0.11368436 0.10115125 0.91299999
-0.11192181 0.10115125 0.91299999
-0.11015926 0.10115125 0.91299999
-0.10839672 0.10115125 0.91299999
-0.10663417 0.10115125 0.91299999
-0.10487162 0.10115125 0.91299999
-0.10310907 0.10115125 0.91299999
-0.10134652 0.10115125 0.91299999
-0.099583976 0.10115125 0.91299999
-0.12276544 0.10313584 0.91500002
-0.12099904 0.10313584 0.91500002
-0.118972 0.10291041 0.91299999
-0.11720946 0.10291041 0.91299999
-0.11544691 0.10291041 0.91299999
-0.11368436 0.10291041 0.91299999
-0.11155406 0.10257225 0.91000003
-0.1097973 0.10257225 0.91000003
-0.10804054 0.10257225 0.91000003
-0.10628378 0.10257225 0.91000003
-0.10452703 0.10257225 0.91000003
-0.10277028 0.10257225 0.91000003
-0.10101352 0.10257225 0.91000003
-0.099256761 0.10257225 0.91000003
-0.12099904 0.10489885 0.91500002
-0.118972 0.10466956 0.91299999
-0.11720946 0.10466956 0.91299999
-0.11506757 0.10432563 0.91000003
-0.11331081 0.10432563 0.91000003
-0.11130888 0.10409634 0.90799999
-0.10955598 0.10409634 0.90799999
-0.10780309 0.10409634 0.90799999
-0.10605019 0.10409634 0.90799999
-0.10452703 0.10432563 0.91000003
-0.10277028 0.10432563 0.91000003
-0.10079151 0.10409634 0.90799999
-0.099038608 0.10409634 0.90799999
-0.118972 0.10642871 0.91299999
-0.11720946 0.10642871 0.91299999
-0.11506757 0.106079 0.91000003
-0.11331081 0.106079 0.91000003
-0.11130888 0.10584585 0.90799999
-0.10955598 0.10584585 0.90799999
-0.10780309 0.10584585 0.90799999
-0.1058166 0.10561272 0.90600002
-0.10406757 0.10561272 0.90600002
-0.10231853 0.10561272 0.90600002
-0.1005695 0.10561272 0.90600002
-0.099038608 0.10584585 0.90799999
-0.09728571 0.10584585 0.90799999
-0.11720946 0.10818786 0.91299999
-0.11506757 0.10783237 0.91000003
-0.11331081 0.10783237 0.91000003
-0.11130888 0.10759538 0.90799999
-0.10931467 0.10735838 0.90600002
-0.10756564 0.10735838 0.90600002
-0.10546622 0.10700289 0.903
-0.10372297 0.10700289 0.903
-0.10197973 0.10700289 0.903
-0.10023648 0.10700289 0.903
-0.098820463 0.10735838 0.90600002
-0.097071432 0.10735838 0.90600002
-0.095322393 0.10735838 0.90600002
-0.11720946 0.10994701 0.91299999
-0.11506757 0.10958575 0.91000003
-0.11331081 0.10958575 0.91000003
-0.10931467 0.10910404 0.90600002
-0.10756564 0.10910404 0.90600002
-0.10546622 0.10874277 0.903
-0.10349324 0.10850193 0.90100002
-0.10175386 0.10850193 0.90100002
-0.10001448 0.10850193 0.90100002
-0.098820463 0.10910404 0.90600002
-0.097071432 0.10910404 0.90600002
-0.095322393 0.10910404 0.90600002
-0.11544691 0.11170617 0.91299999
-0.11461873 0.083771676 0.935
-0.11461873 0.083771676 0.935
-0.1128137 0.083771676 0.935
-0.1128137 0.083771676 0.935
-0.11136487 0.084040463 0.93800002
-0.11136487 0.084040463 0.93800002
-0.11461873 0.085573219 0.935
-0.11461873 0.085573219 0.935
-0.11822876 0.087374762 0.935
-0.11822876 0.087374762 0.935
-0.11642375 0.087374762 0.935
-0.11642375 0.087374762 0.935
-0.12671235 0.099936411 0.91799998
-0.12671235 0.099936411 0.91799998
-0.12494015 0.099936411 0.91799998
-0.12494015 0.099936411 0.91799998
-0.12494015 0.1017052 0.91799998
-0.12494015 0.1017052 0.91799998
-0.11106371 0.10910404 0.90600002
-0.11106371 0.10910404 0.90600002
-0.11331081 0.11133911 0.91000003
-0.11331081 0.11133911 0.91000003
-0.11106371 0.11084972 0.90600002
-0.11106371 0.11084972 0.90600002
-0.10931467 0.11084972 0.90600002
-0.10931467 0.11084972 0.90600002
-0.10720946 0.11048266 0.903
-0.10720946 0.11048266 0.903
-0.10523263 0.11023796 0.90100002
-0.10523263 0.11023796 0.90100002
-0.10349324 0.11023796 0.90100002
-0.10349324 0.11023796 0.90100002
-0.10141506 0.1098709 0.898
-0.10141506 0.1098709 0.898
-0.099459462 0.10962621 0.89600003
-0.099459462 0.10962621 0.89600003
-0.097729735 0.10962621 0.89600003
-0.097729735 0.10962621 0.89600003
-0.096000001 0.10962621 0.89600003
-0.096000001 0.10962621 0.89600003
-0.094270274 0.10962621 0.89600003
-0.094270274 0.10962621 0.89600003
-0.11243919 0.11222254 0.903
-0.11243919 0.11222254 0.903
-0.11069594 0.11222254 0.903
-0.11069594 0.11222254 0.903
-0.1089527 0.11222254 0.903
-0.1089527 0.11222254 0.903
-0.10720946 0.11222254 0.903
-0.10720946 0.11222254 0.903
-0.10523263 0.11197399 0.90100002
-0.10523263 0.11197399 0.90100002
-0.10314865 0.11160116 0.898
-0.10314865 0.11160116 0.898
-0.10141506 0.11160116 0.898
-0.10141506 0.11160116 0.898
-0.099459462 0.11135261 0.89600003
-0.099459462 0.11135261 0.89600003
-0.097729735 0.11135261 0.89600003
-0.097729735 0.11135261 0.89600003
-0.096000001 0.11135261 0.89600003
-0.096000001 0.11135261 0.89600003
-0.094270274 0.11135261 0.89600003
-0.094270274 0.11135261 0.89600003
-0.11243919 0.11396243 0.903
-0.11243919 0.11396243 0.903
-0.11069594 0.11396243 0.903
-0.11069594 0.11396243 0.903
-0.1089527 0.11396243 0.903
-0.1089527 0.11396243 0.903
-0.10720946 0.11396243 0.903
-0.10720946 0.11396243 0.903
-0.10523263 0.11371002 0.90100002
-0.10523263 0.11371002 0.90100002
-0.10314865 0.11333141 0.898
-0.10314865 0.11333141 0.898
-0.10118919 0.113079 0.89600003
-0.10118919 0.113079 0.89600003
-0.099459462 0.113079 0.89600003
-0.099459462 0.113079 0.89600003
-0.097729735 0.113079 0.89600003
-0.097729735 0.113079 0.89600003
-0.096000001 0.113079 0.89600003
-0.096000001 0.113079 0.89600003
-0.094270274 0.113079 0.89600003
-0.094270274 0.113079 0.89600003
-0.11243919 0.11570231 0.903
-0.11243919 0.11570231 0.903
-0.11069594 0.11570231 0.903
-0.11069594 0.11570231 0.903
-0.1089527 0.11570231 0.903
-0.1089527 0.11570231 0.903
-0.10720946 0.11570231 0.903
-0.10720946 0.11570231 0.903
-0.10523263 0.11544605 0.90100002
-0.10523263 0.11544605 0.90100002
-0.10314865 0.11506166 0.898
-0.10314865 0.11506166 0.898
-0.11219016 0.11718208 0.90100002
-0.11219016 0.11718208 0.90100002
-0.11045077 0.11718208 0.90100002
-0.11045077 0.11718208 0.90100002
-0.1089527 0.1174422 0.903
-0.1089527 0.1174422 0.903
-0.10720946 0.1174422 0.903
-0.10720946 0.1174422 0.903
-0.10523263 0.11718208 0.90100002
-0.10523263 0.11718208 0.90100002
-0.10314865 0.11679191 0.898
-0.10314865 0.11679191 0.898
-0.1089527 0.11918208 0.903
-0.1089527 0.11918208 0.903
-0.10697201 0.11891811 0.90100002
-0.10697201 0.11891811 0.90100002
-0.10523263 0.11891811 0.90100002
-0.10523263 0.11891811 0.90100002
-0.10314865 0.11852216 0.898
-0.10314865 0.11852216 0.898
-0.10141506 0.11852216 0.898
-0.10141506 0.11852216 0.898
-0.099459462 0.11825819 0.89600003
-0.099459462 0.11825819 0.89600003
-0.10871139 0.12065414 0.90100002
-0.10871139 0.12065414 0.90100002
-0.10697201 0.12065414 0.90100002
-0.10697201 0.12065414 0.90100002
-0.10523263 0.12065414 0.90100002
-0.10523263 0.12065414 0.90100002
-0.10314865 0.12025241 0.898
-0.10314865 0.12025241 0.898
-0.10141506 0.12025241 0.898
-0.10141506 0.12025241 0.898
-0.099459462 0.11998459 0.89600003
-0.099459462 0.11998459 0.89600003
-0.10871139 0.12239017 0.90100002
-0.10871139 0.12239017 0.90100002
-0.10697201 0.12239017 0.90100002
-0.10697201 0.12239017 0.90100002
-0.10523263 0.12239017 0.90100002
-0.10523263 0.12239017 0.90100002
-0.10349324 0.12239017 0.90100002
-0.10349324 0.12239017 0.90100002
-0.10175386 0.12239017 0.90100002
-0.10175386 0.12239017 0.90100002
-0.10001448 0.12239017 0.90100002
-0.10001448 0.12239017 0.90100002
-0.10720946 0.12440173 0.903
-0.10720946 0.12440173 0.903
-0.10523263 0.12412621 0.90100002
-0.10523263 0.12412621 0.90100002
-0.10349324 0.12412621 0.90100002
-0.10349324 0.12412621 0.90100002
-0.10175386 0.12412621 0.90100002
-0.10175386 0.12412621 0.90100002
-0.10001448 0.12412621 0.90100002
-0.10001448 0.12412621 0.90100002
-0.10720946 0.12614162 0.903
-0.10720946 0.12614162 0.903
-0.10523263 0.12586224 0.90100002
-0.10523263 0.12586224 0.90100002
-0.10349324 0.12586224 0.90100002
-0.10349324 0.12586224 0.90100002
-0.10175386 0.12586224 0.90100002
-0.10175386 0.12586224 0.90100002
-0.12003379 0.087374762 0.935
-0.12003379 0.087374762 0.935
-0.12298263 0.088699423 0.93000001
-0.12298263 0.088699423 0.93000001
-0.12157819 0.088985555 0.93300003
-0.12157819 0.088985555 0.93300003
-0.11977703 0.088985555 0.93300003
-0.11977703 0.088985555 0.93300003
-0.124778 0.090491332 0.93000001
-0.124778 0.090491332 0.93000001
-0.12657335 0.094075143 0.93000001
-0.12657335 0.094075143 0.93000001
-0.12836872 0.095867053 0.93000001
-0.12836872 0.095867053 0.93000001
-0.12157819 0.087187864 0.93300003
-0.12157819 0.087187864 0.93300003
-0.124778 0.088699423 0.93000001
-0.124778 0.088699423 0.93000001
-0.12657335 0.090491332 0.93000001
-0.12657335 0.090491332 0.93000001
-0.12657335 0.092283234 0.93000001
-0.12657335 0.092283234 0.93000001
-0.12337935 0.087187864 0.93300003
-0.12337935 0.087187864 0.93300003
-0.12518051 0.087187864 0.93300003
-0.12518051 0.087187864 0.93300003
-0.12698166 0.088985555 0.93300003
-0.12698166 0.088985555 0.93300003
-0.12878282 0.092580929 0.93300003
-0.12878282 0.092580929 0.93300003
-0.12698166 0.087187864 0.93300003
-0.12698166 0.087187864 0.93300003
-0.12836872 0.094075143 0.93000001
-0.12836872 0.094075143 0.93000001
-0.13016409 0.095867053 0.93000001
-0.13016409 0.095867053 0.93000001
-0.12878282 0.088985555 0.93300003
-0.12878282 0.088985555 0.93300003
-0.12878282 0.090783238 0.93300003
-0.12878282 0.090783238 0.93300003
-0.13058399 0.092580929 0.93300003
-0.13058399 0.092580929 0.93300003
-0.13016409 0.094075143 0.93000001
-0.13016409 0.094075143 0.93000001
-0.13058399 0.090783238 0.93300003
-0.13058399 0.090783238 0.93300003
-0.13238513 0.092580929 0.93300003
-0.13238513 0.092580929 0.93300003
-0.13238513 0.090783238 0.93300003
-0.13238513 0.090783238 0.93300003
